-1 -1 -1 -1 -1 -1 -1 -1 -1 -1 -1 -1 -1 -1 26 64 107 131 165 189 207 209 219 260 362 528 734 922 1069 1169 1232 1272 1301 1327 1343 1348 1346 1333 1310 1281 1247 1220 1196 1175 1158 1142 1127 1109 1093 1075 1055 1043 1033 1018 999 978 958 934 912 881 843 800 757 712 668 622 575 518 445 338 189 66 41 115 227 341 434 498 536 545 526 491 450 421 404 401 401 414 455 539 656 805 966 1127 1288 1429 1564 1672 1762 1829 1876 1902 1908 1895 1877 1879 1879 1903 1926 1941 1951 1960 1982 2000 2016 2018 2007 1976 1931 1874 1804 1723 1624 1492 1319 1096 815 551 301 266 418 562 755 930 1075 1184 1256 1297 1320 1334 1354 1372 1387 1396 1392 1371 1322 1243 1145 1073 1018 1011 1003 1004 959 858 692 481 244 15 -1 -1 -1 -1 -1 -1 -1 -1 -1 -1 -1 -1 -1 -1 -1 -1 -1 -1 -1 -1
-1 -1 -1 -1 -1 -1 -1 -1 -1 -1 -1 12 87 151 195 246 291 337 362 400 434 455 472 502 551 652 800 965 1115 1228 1303 1350 1381 1403 1412 1409 1393 1369 1338 1302 1262 1225 1195 1173 1157 1146 1137 1127 1116 1105 1094 1086 1079 1068 1052 1031 1004 973 934 886 827 760 698 641 596 551 506 462 408 329 231 151 150 212 312 415 497 549 569 563 532 487 445 413 400 392 392 402 434 498 609 748 914 1089 1259 1424 1566 1697 1803 1892 1953 1998 2017 2021 2016 2009 2015 2022 2043 2057 2064 2072 2076 2084 2084 2071 2036 1979 1898 1797 1688 1564 1435 1284 1100 864 637 389 425 520 671 850 1004 1148 1259 1339 1388 1415 1431 1441 1448 1450 1445 1427 1397 1346 1271 1162 1050 948 929 862 901 908 896 808 648 423 177 -1 -1 -1 -1 -1 -1 -1 -1 -1 38 76 89 71 6 -1 -1 -1 -1 -1 -1 -1
-1 -1 -1 -1 -1 -1 -1 -1 -1 -1 -1 108 215 298 368 419 474 527 573 602 642 683 711 740 772 812 906 1032 1164 1279 1360 1413 1445 1458 1457 1438 1403 1359 1313 1264 1217 1172 1133 1109 1095 1091 1089 1086 1083 1078 1080 1081 1081 1077 1067 1049 1021 982 931 865 783 695 617 554 505 466 434 403 371 331 279 248 250 304 385 475 545 587 597 581 544 495 449 418 400 394 395 401 423 479 567 704 863 1046 1226 1399 1561 1702 1828 1928 2010 2065 2103 2117 2125 2123 2123 2130 2139 2150 2155 2156 2156 2149 2136 2106 2049 1961 1837 1684 1514 1344 1168 1003 832 672 501 584 677 835 980 1114 1239 1338 1418 1468 1499 1511 1516 1516 1508 1491 1463 1420 1364 1293 1191 1084 971 948 879 864 772 804 790 731 584 372 120 -1 -1 -1 -1 46 74 82 101 130 165 191 191 155 77 -1 -1 -1 -1 -1 -1 -1
-1 -1 -1 -1 -1 -1 -1 -1 -1 -1 32 181 318 430 514 585 641 700 755 800 838 880 915 945 969 996 1038 1122 1223 1324 1406 1461 1490 1496 1478 1436 1371 1296 1228 1169 1112 1061 1017 990 980 983 989 996 994 1003 1011 1027 1037 1043 1043 1030 1005 962 902 821 723 617 527 460 417 387 366 352 339 326 325 328 348 388 454 527 585 616 619 599 559 508 460 420 398 392 392 396 419 461 549 668 836 1011 1198 1374 1542 1696 1834 1949 2040 2113 2162 2192 2204 2211 2213 2213 2218 2221 2222 2219 2210 2197 2171 2128 2056 1938 1783 1582 1357 1136 946 776 672 616 737 840 990 1116 1245 1349 1431 1500 1544 1571 1578 1577 1568 1552 1528 1493 1446 1382 1305 1208 1115 1006 1009 983 965 892 806 664 659 589 479 292 79 -1 -1 27 140 206 231 247 253 272 296 302 282 225 127 -1 -1 -1 -1 -1 -1 -1
-1 -1 -1 -1 -1 -1 -1 -1 -1 -1 83 245 397 532 641 724 792 851 911 964 1011 1046 1081 1110 1133 1151 1177 1223 1290 1370 1442 1495 1520 1515 1476 1403 1298 1180 1084 1016 967 913 867 830 833 845 860 861 870 885 912 934 954 972 981 980 958 916 852 764 657 540 440 378 343 323 315 314 311 327 357 391 427 471 520 570 614 636 635 612 574 525 471 426 404 390 384 388 404 452 534 669 819 1003 1178 1358 1526 1692 1831 1956 2057 2140 2200 2239 2259 2270 2275 2273 2269 2266 2261 2252 2241 2222 2192 2141 2059 1938 1763 1553 1326 1115 942 889 862 913 1013 1147 1259 1370 1463 1535 1583 1614 1631 1630 1621 1603 1580 1549 1509 1459 1396 1320 1220 1126 1027 1047 1052 1058 1026 960 836 667 457 399 308 173 26 -1 53 185 296 366 394 396 407 411 410 397 352 270 149 0 -1 -1 -1 -1 -1 -1
-1 -1 -1 -1 -1 -1 -1 -1 -1 -1 137 308 467 612 740 839 919 982 1037 1094 1140 1176 1203 1228 1246 1259 1281 1309 1356 1413 1475 1519 1538 1521 1461 1352 1208 1044 916 858 817 787 735 718 710 735 728 721 734 764 793 818 849 872 896 899 887 854 792 702 588 469 372 320 299 294 295 301 316 341 386 441 493 536 579 609 634 644 637 618 587 544 494 449 419 400 386 382 398 446 546 670 832 997 1179 1347 1527 1684 1833 1957 2069 2156 2221 2265 2291 2305 2307 2302 2291 2281 2270 2257 2243 2224 2193 2144 2066 1954 1809 1634 1456 1312 1213 1169 1192 1240 1319 1405 1491 1571 1628 1665 1682 1679 1667 1646 1617 1584 1548 1504 1454 1395 1322 1230 1140 1038 1071 1089 1109 1100 1065 997 869 637 341 161 113 56 -1 98 217 354 454 518 545 547 537 531 506 462 391 281 135 -1 -1 -1 -1 -1 -1 -1
-1 -1 -1 -1 -1 -1 -1 -1 -1 37 205 374 536 685 814 927 1014 1083 1139 1188 1228 1256 1276 1288 1297 1308 1324 1356 1398 1447 1498 1537 1549 1522 1448 1320 1151 974 839 772 751 737 752 743 728 688 667 651 644 664 681 707 731 767 791 808 803 781 731 641 526 412 339 306 301 305 315 330 353 389 431 486 546 596 625 641 642 633 622 606 587 560 522 482 450 422 404 397 411 462 554 696 851 1021 1193 1371 1529 1691 1830 1966 2072 2163 2227 2273 2301 2315 2315 2304 2283 2262 2244 2230 2218 2203 2176 2133 2072 1989 1883 1762 1650 1559 1499 1471 1474 1512 1561 1615 1669 1711 1739 1742 1724 1692 1652 1610 1565 1519 1473 1423 1366 1303 1221 1141 1049 1088 1108 1140 1142 1121 1078 997 851 602 281 20 -1 -1 137 266 414 525 611 659 677 673 652 618 567 491 386 251 86 -1 -1 -1 -1 -1 -1 -1
-1 -1 -1 -1 -1 -1 -1 -1 -1 115 284 448 607 753 881 991 1082 1150 1203 1243 1268 1282 1285 1281 1277 1282 1306 1349 1403 1460 1512 1549 1557 1527 1451 1333 1172 1010 901 859 841 844 849 844 813 773 734 704 671 638 629 626 646 664 691 710 719 712 674 600 495 408 358 344 338 350 366 388 420 458 501 549 600 644 665 662 639 607 581 570 565 560 543 518 489 463 444 443 455 502 595 728 898 1068 1240 1407 1567 1704 1845 1966 2077 2159 2221 2265 2292 2303 2300 2281 2249 2210 2183 2170 2166 2159 2140 2107 2060 2004 1936 1865 1803 1754 1718 1696 1693 1708 1734 1761 1782 1796 1791 1766 1718 1655 1592 1531 1468 1409 1352 1302 1243 1184 1119 1051 1099 1131 1165 1171 1161 1128 1067 960 788 538 229 -1 -1 151 313 480 601 693 754 787 786 767 727 665 582 472 335 175 5 -1 -1 -1 -1 -1 -1 -1
-1 -1 -1 -1 -1 -1 -1 -1 24 194 363 527 679 820 942 1043 1123 1184 1227 1251 1258 1247 1226 1201 1180 1186 1226 1297 1379 1452 1511 1553 1564 1539 1476 1372 1244 1117 1044 1005 990 976 962 939 909 873 835 797 755 713 676 649 612 600 614 626 646 650 635 585 524 468 434 415 413 414 436 465 503 543 584 626 665 690 699 680 641 590 547 520 530 533 543 542 530 515 510 511 535 583 665 796 956 1130 1296 1457 1606 1744 1863 1978 2073 2149 2202 2240 2263 2273 2267 2239 2190 2131 2091 2078 2086 2091 2083 2061 2025 1984 1946 1914 1890 1870 1855 1842 1836 1835 1838 1840 1833 1820 1790 1743 1670 1582 1499 1419 1336 1255 1190 1150 1128 1065 1055 1114 1153 1190 1201 1193 1166 1112 1022 881 689 435 195 56 186 353 538 674 781 844 881 887 868 824 756 662 544 400 241 70 -1 -1 -1 -1 -1 -1 -1 -1
-1 -1 -1 -1 -1 -1 -1 -1 79 263 439 599 745 880 991 1077 1142 1187 1209 1212 1193 1158 1105 1052 1022 1037 1123 1234 1338 1429 1499 1546 1566 1554 1505 1427 1333 1246 1176 1136 1103 1065 1027 987 953 922 893 863 829 790 750 704 656 616 576 582 590 617 629 616 590 558 534 515 500 499 515 551 591 632 670 703 730 740 730 702 656 605 558 521 483 497 515 540 558 568 574 594 629 687 770 883 1030 1193 1356 1507 1650 1777 1890 1985 2066 2126 2168 2198 2216 2227 2220 2185 2115 2029 1971 1958 1978 2001 2008 1996 1967 1933 1910 1900 1903 1909 1914 1915 1909 1897 1880 1856 1826 1788 1741 1679 1593 1487 1386 1294 1212 1106 1068 1058 1061 1115 1149 1187 1219 1231 1225 1199 1145 1059 929 757 539 342 172 276 422 598 742 860 934 974 981 959 908 830 731 605 452 284 109 -1 -1 -1 -1 -1 -1 -1 -1 -1
-1 -1 -1 -1 -1 -1 -1 -1 123 313 493 653 797 919 1016 1085 1129 1149 1147 1122 1079 1011 932 860 827 906 1038 1178 1299 1397 1475 1530 1562 1564 1536 1481 1415 1346 1279 1219 1164 1097 1026 967 925 901 882 866 847 819 785 744 696 642 592 560 584 625 656 670 665 655 637 617 599 591 606 637 677 717 751 777 789 784 762 727 681 636 591 537 484 447 472 519 567 602 633 668 718 786 876 983 1113 1263 1416 1559 1688 1807 1907 1989 2047 2087 2112 2132 2153 2170 2169 2132 2049 1933 1839 1822 1850 1891 1917 1916 1891 1856 1833 1833 1855 1884 1908 1924 1923 1906 1870 1823 1769 1710 1651 1586 1498 1384 1274 1199 1128 1137 1134 1143 1175 1215 1249 1263 1268 1258 1231 1175 1085 957 788 576 392 239 356 497 668 815 933 1015 1062 1069 1046 992 905 788 652 495 321 134 -1 -1 -1 -1 -1 -1 -1 -1 -1 -1
-1 -1 -1 -1 -1 -1 -1 -1 155 343 525 685 820 930 1008 1055 1071 1065 1035 985 912 821 728 659 685 835 999 1142 1263 1361 1442 1502 1545 1565 1557 1524 1475 1413 1344 1271 1189 1091 982 894 847 818 810 809 803 787 764 733 694 645 605 584 622 668 707 731 745 743 735 714 692 684 697 724 758 793 821 838 839 820 787 747 702 658 608 549 478 427 440 499 565 620 673 728 791 868 964 1076 1201 1338 1474 1608 1725 1828 1913 1972 2009 2024 2033 2044 2072 2109 2122 2093 2012 1885 1754 1695 1721 1774 1816 1832 1811 1766 1733 1732 1764 1808 1852 1884 1895 1878 1831 1761 1682 1605 1537 1475 1395 1306 1202 1170 1220 1244 1267 1283 1300 1313 1319 1313 1294 1265 1206 1106 963 793 589 403 248 386 548 734 881 1001 1086 1136 1149 1125 1070 980 854 703 532 355 166 -1 -1 -1 -1 -1 -1 -1 -1 -1 -1 -1
-1 -1 -1 -1 -1 -1 -1 -1 174 355 530 687 814 907 961 980 966 930 876 801 707 605 533 534 680 831 994 1125 1227 1319 1394 1460 1517 1554 1565 1549 1511 1458 1387 1302 1204 1081 955 845 775 742 725 737 725 711 697 679 653 631 613 650 689 735 770 798 814 821 815 797 776 768 778 803 828 858 879 886 875 842 800 752 705 656 604 543 471 418 429 488 554 627 694 767 846 932 1035 1151 1283 1408 1537 1651 1755 1840 1899 1933 1941 1934 1925 1940 1990 2044 2080 2074 2009 1895 1761 1636 1625 1660 1713 1745 1741 1688 1626 1612 1638 1698 1757 1809 1839 1832 1787 1706 1603 1502 1427 1370 1321 1259 1272 1288 1328 1369 1385 1387 1389 1382 1366 1337 1297 1233 1135 984 770 553 387 244 359 543 757 927 1057 1145 1197 1213 1192 1138 1046 920 759 569 380 192 42 -1 -1 -1 -1 -1 -1 -1 -1 -1 -1 -1
-1 -1 -1 -1 -1 -1 -1 -1 170 356 521 663 776 847 871 857 814 748 672 581 479 410 411 580 734 880 994 1096 1179 1252 1328 1408 1480 1533 1561 1560 1535 1487 1420 1331 1223 1109 983 870 801 763 742 699 679 663 652 642 633 637 680 719 762 802 833 855 869 875 868 854 839 832 842 860 887 908 923 918 892 846 788 731 678 628 576 519 455 412 431 476 543 616 707 793 887 989 1095 1220 1346 1472 1585 1688 1771 1830 1862 1862 1840 1811 1796 1838 1910 1992 2050 2063 2022 1931 1805 1683 1574 1575 1616 1668 1686 1651 1565 1484 1505 1555 1634 1706 1756 1775 1748 1678 1567 1454 1376 1333 1312 1349 1380 1420 1447 1466 1471 1463 1447 1427 1389 1333 1250 1135 987 785 578 326 263 374 514 723 923 1077 1181 1242 1261 1244 1191 1102 980 817 622 399 194 59 -1 -1 2 -1 -1 -1 -1 -1 -1 -1 -1 -1
-1 -1 -1 -1 -1 -1 -1 -1 160 335 491 617 703 744 737 689 614 529 437 346 284 286 478 654 812 914 986 1036 1093 1165 1251 1351 1438 1506 1547 1560 1546 1507 1445 1362 1264 1158 1046 946 885 848 810 774 740 716 708 698 700 717 750 791 825 852 875 890 897 896 887 874 863 863 873 896 920 941 947 932 892 827 748 678 622 575 530 479 431 402 425 467 518 598 693 804 914 1030 1151 1274 1401 1520 1624 1705 1763 1791 1787 1755 1707 1655 1672 1737 1848 1949 2022 2050 2030 1964 1863 1741 1629 1537 1555 1598 1639 1630 1561 1462 1372 1420 1490 1580 1654 1700 1710 1670 1590 1499 1445 1418 1433 1462 1502 1526 1542 1541 1530 1511 1485 1449 1388 1291 1124 927 727 581 395 437 460 569 729 894 1053 1184 1263 1294 1280 1231 1145 1027 873 682 453 243 50 7 80 128 158 136 69 -1 -1 -1 -1 -1 -1 -1
-1 -1 -1 -1 -1 -1 -1 -1 127 295 436 538 594 604 562 483 389 286 198 151 170 368 556 729 841 900 922 931 974 1059 1178 1297 1398 1476 1528 1552 1549 1519 1467 1395 1310 1216 1118 1033 977 937 897 860 830 809 793 790 789 800 818 842 860 874 885 892 891 881 865 848 839 845 868 899 931 952 955 930 873 786 683 597 538 504 472 434 393 396 406 437 486 562 667 789 923 1055 1188 1318 1441 1553 1642 1703 1728 1717 1679 1616 1541 1525 1540 1662 1797 1915 1991 2030 2024 1980 1903 1803 1686 1585 1510 1538 1590 1617 1578 1477 1368 1287 1353 1438 1538 1612 1659 1667 1637 1593 1558 1554 1564 1583 1602 1611 1605 1589 1564 1535 1501 1447 1362 1197 958 637 476 423 591 664 753 831 935 1055 1170 1256 1306 1304 1258 1172 1060 911 734 516 311 117 124 168 242 297 296 242 141 12 -1 -1 -1 -1 -1 -1
-1 -1 -1 -1 -1 -1 -1 -1 71 227 348 422 448 423 357 264 164 85 22 77 269 461 638 755 808 811 781 783 832 968 1120 1253 1365 1447 1505 1538 1542 1523 1481 1422 1351 1269 1185 1109 1052 1002 954 915 885 865 854 847 847 847 853 856 860 861 861 860 850 829 801 773 764 776 820 871 914 942 946 917 848 737 613 504 454 434 417 390 388 374 386 403 444 522 632 762 910 1062 1209 1346 1469 1572 1644 1675 1662 1611 1540 1457 1412 1391 1502 1628 1768 1881 1959 1997 2002 1973 1917 1836 1733 1621 1526 1488 1547 1601 1592 1517 1396 1285 1228 1312 1418 1516 1599 1657 1678 1674 1667 1667 1673 1679 1681 1668 1641 1604 1569 1534 1490 1424 1292 1110 809 612 507 679 830 950 1012 1067 1121 1191 1259 1311 1319 1280 1196 1078 930 764 563 376 191 231 284 369 424 438 394 296 158 0 -1 -1 -1 -1 -1 -1
-1 -1 -1 -1 -1 -1 -1 -1 -1 128 222 268 264 221 144 60 -1 -1 83 209 385 554 671 719 708 650 614 611 748 917 1086 1234 1341 1424 1481 1514 1524 1514 1486 1440 1381 1313 1239 1167 1100 1035 976 924 890 870 864 862 857 851 843 835 825 815 808 798 782 751 705 667 639 674 732 806 868 911 925 899 825 712 567 461 410 392 387 393 386 387 376 384 415 489 599 739 891 1059 1218 1361 1483 1577 1630 1627 1571 1482 1386 1327 1289 1376 1498 1637 1755 1850 1916 1953 1961 1943 1901 1835 1747 1638 1529 1472 1518 1585 1603 1553 1454 1323 1203 1224 1307 1425 1541 1634 1693 1723 1738 1748 1750 1747 1731 1699 1650 1593 1540 1495 1445 1352 1230 1015 958 871 892 977 1100 1182 1224 1242 1271 1302 1332 1343 1314 1230 1099 944 770 580 419 255 317 391 493 551 572 536 442 294 117 -1 -1 -1 -1 -1 -1 -1
-1 -1 -1 -1 -1 -1 -1 -1 -1 2 65 81 64 23 -1 -1 -1 83 222 374 498 597 640 622 547 482 437 575 739 927 1089 1222 1330 1402 1451 1479 1490 1489 1473 1443 1398 1340 1274 1201 1123 1046 966 901 857 839 837 837 832 816 798 782 765 751 735 723 697 655 617 557 548 562 629 704 788 859 892 882 819 706 588 487 436 419 412 416 420 411 412 412 429 483 584 723 889 1055 1220 1369 1490 1573 1607 1571 1467 1346 1261 1214 1272 1373 1502 1627 1728 1805 1858 1890 1901 1892 1861 1807 1728 1628 1517 1460 1501 1573 1608 1585 1505 1383 1264 1172 1234 1348 1484 1597 1681 1735 1767 1786 1792 1783 1756 1708 1643 1569 1486 1419 1349 1279 1142 1173 1156 1172 1201 1250 1303 1347 1369 1375 1376 1385 1388 1365 1298 1170 996 785 585 420 286 368 467 595 673 707 679 592 440 244 30 -1 -1 -1 -1 -1 -1 -1
-1 -1 -1 -1 -1 -1 -1 -1 -1 -1 -1 -1 -1 -1 -1 -1 101 235 376 484 555 573 542 458 382 306 440 608 796 962 1109 1226 1310 1369 1403 1425 1439 1445 1442 1425 1394 1349 1288 1215 1133 1041 951 865 811 793 794 796 784 759 728 704 689 671 658 636 603 578 543 560 554 562 564 603 703 785 851 863 824 741 650 571 520 488 478 474 473 475 472 482 496 530 612 740 898 1071 1235 1382 1496 1570 1584 1523 1390 1243 1162 1183 1262 1369 1482 1585 1670 1734 1781 1811 1826 1823 1801 1759 1688 1595 1501 1447 1489 1566 1609 1598 1537 1435 1306 1203 1162 1281 1426 1553 1645 1709 1753 1779 1792 1787 1760 1707 1635 1547 1454 1340 1269 1220 1281 1298 1347 1371 1397 1421 1442 1455 1461 1460 1454 1445 1430 1384 1288 1139 918 678 446 292 347 484 648 763 829 825 755 613 414 170 -1 -1 -1 -1 -1 -1 -1 -1
-1 -1 -1 -1 -1 -1 -1 -1 -1 -1 -1 -1 -1 -1 3 131 269 379 472 527 530 480 377 291 208 337 492 692 866 1011 1125 1216 1276 1314 1337 1354 1369 1381 1388 1383 1365 1333 1283 1215 1129 1036 933 844 776 752 753 753 731 683 636 612 593 589 573 547 528 521 576 602 626 625 621 617 627 723 793 842 834 797 742 685 628 589 567 558 557 558 565 576 599 632 696 799 940 1100 1260 1400 1509 1570 1568 1492 1353 1199 1132 1160 1236 1337 1431 1514 1583 1643 1691 1722 1739 1741 1731 1698 1636 1554 1473 1435 1482 1554 1601 1595 1541 1445 1325 1200 1141 1229 1383 1506 1595 1655 1698 1730 1751 1760 1746 1704 1634 1547 1440 1378 1334 1359 1390 1444 1472 1496 1509 1519 1522 1520 1515 1509 1502 1489 1466 1407 1303 1134 920 652 411 310 415 611 787 905 947 919 809 632 390 135 -1 -1 -1 -1 -1 -1 -1 -1
-1 -1 -1 -1 -1 -1 -1 -1 -1 -1 -1 -1 -1 -1 117 269 381 460 498 491 433 320 214 121 250 409 602 773 929 1046 1130 1184 1218 1237 1254 1269 1283 1294 1309 1315 1311 1293 1258 1200 1122 1024 925 830 766 729 727 728 692 618 555 508 511 500 486 470 471 538 606 671 699 717 714 697 684 665 747 800 842 849 833 799 756 710 678 665 661 665 676 696 727 766 825 913 1020 1158 1298 1427 1525 1574 1563 1483 1350 1229 1145 1130 1191 1268 1342 1411 1475 1538 1591 1628 1647 1658 1656 1633 1581 1506 1444 1423 1476 1544 1581 1574 1516 1420 1293 1181 1128 1227 1354 1463 1534 1581 1613 1646 1679 1706 1717 1697 1646 1565 1501 1459 1458 1475 1508 1537 1562 1571 1573 1567 1558 1549 1542 1537 1532 1523 1494 1434 1325 1167 956 710 477 378 500 716 901 1014 1046 993 864 662 427 170 -1 -1 -1 -1 -1 -1 -1 -1
-1 -1 -1 -1 -1 -1 -1 -1 -1 -1 -1 -1 24 130 244 349 429 460 445 384 275 164 59 166 326 523 699 847 962 1049 1099 1124 1132 1148 1161 1169 1177 1190 1204 1218 1227 1229 1212 1174 1106 1018 918 833 761 723 722 719 681 609 521 479 449 437 426 426 469 534 634 716 772 795 807 797 770 741 692 759 815 873 899 899 875 844 809 786 786 788 804 834 870 916 978 1049 1141 1240 1356 1464 1544 1583 1568 1494 1390 1278 1186 1127 1139 1178 1232 1289 1360 1432 1494 1537 1560 1575 1584 1571 1526 1460 1408 1421 1472 1528 1557 1540 1475 1368 1239 1125 1150 1235 1343 1420 1466 1489 1507 1540 1583 1634 1674 1690 1665 1619 1577 1553 1551 1568 1588 1609 1618 1618 1601 1580 1563 1553 1549 1550 1554 1549 1521 1457 1349 1193 995 766 549 458 588 811 1000 1106 1127 1063 922 727 495 257 34 -1 -1 -1 -1 -1 -1 -1
-1 -1 -1 -1 -1 -1 -1 -1 -1 -1 -1 38 129 224 312 376 404 386 326 224 120 19 110 250 444 623 775 889 967 1010 1032 1027 1034 1042 1052 1051 1058 1063 1076 1090 1114 1135 1147 1133 1088 1011 927 837 763 726 727 731 704 639 560 510 465 443 440 435 466 546 639 745 823 871 885 890 874 828 773 706 777 856 933 972 983 968 945 924 916 929 949 983 1024 1070 1126 1195 1265 1345 1429 1508 1568 1595 1577 1518 1432 1333 1235 1155 1106 1107 1128 1180 1257 1343 1418 1459 1485 1505 1518 1512 1477 1425 1391 1415 1468 1514 1527 1499 1422 1307 1178 1101 1151 1250 1331 1379 1393 1387 1390 1419 1477 1551 1627 1678 1693 1677 1654 1637 1634 1641 1656 1664 1663 1640 1605 1571 1552 1544 1546 1559 1571 1573 1546 1474 1353 1189 990 768 596 535 693 910 1087 1188 1201 1130 993 803 582 351 131 -1 -1 -1 -1 -1 -1 -1
-1 -1 -1 -1 -1 -1 -1 -1 -1 -1 20 98 175 244 298 327 312 258 163 68 -1 65 194 374 547 706 820 896 931 939 925 923 914 925 925 929 920 919 922 936 971 1016 1057 1077 1062 1013 936 854 778 738 745 758 745 698 637 578 532 508 490 491 501 559 659 766 868 932 968 976 971 937 860 770 721 822 933 1013 1059 1078 1071 1062 1061 1073 1101 1136 1175 1220 1269 1323 1385 1443 1501 1552 1590 1601 1581 1533 1461 1376 1279 1188 1116 1075 1086 1137 1208 1292 1359 1404 1427 1451 1465 1459 1437 1400 1383 1413 1461 1495 1496 1452 1367 1244 1134 1086 1165 1255 1313 1333 1316 1288 1272 1304 1376 1477 1582 1662 1711 1731 1727 1721 1716 1717 1721 1719 1697 1654 1600 1558 1540 1539 1552 1574 1595 1601 1572 1488 1339 1143 915 716 577 659 815 1013 1173 1262 1269 1198 1061 874 657 431 208 -1 -1 -1 -1 -1 -1 -1
-1 -1 -1 -1 -1 -1 -1 -1 -1 -1 22 87 142 182 206 203 172 98 17 -1 10 141 319 488 641 757 832 861 857 827 808 788 796 793 801 788 777 758 747 766 808 875 950 1009 1033 1013 957 879 802 757 768 791 794 774 729 676 626 589 577 565 576 612 698 806 909 996 1045 1067 1067 1040 974 860 748 794 896 1012 1100 1157 1183 1191 1204 1222 1247 1282 1318 1354 1395 1438 1480 1522 1553 1580 1595 1593 1570 1528 1469 1394 1307 1213 1131 1086 1090 1140 1210 1276 1333 1371 1397 1412 1417 1417 1403 1386 1380 1415 1454 1475 1460 1406 1312 1187 1082 1103 1172 1255 1297 1292 1252 1203 1185 1222 1315 1425 1538 1640 1718 1766 1791 1795 1796 1794 1788 1774 1736 1671 1603 1563 1548 1552 1572 1601 1628 1635 1599 1492 1304 1051 821 625 632 758 949 1124 1259 1332 1331 1254 1113 922 700 467 236 19 -1 -1 -1 -1 -1 -1
-1 -1 -1 -1 -1 -1 -1 -1 -1 -1 -1 5 37 51 43 35 0 -1 -1 -1 95 268 437 592 709 783 807 791 742 696 661 664 668 680 667 654 626 590 582 585 641 731 840 940 1003 1015 981 916 840 780 782 812 840 843 822 781 735 696 669 666 671 707 768 867 970 1061 1127 1160 1168 1152 1093 987 868 763 845 968 1105 1207 1270 1308 1334 1359 1387 1415 1446 1473 1496 1522 1546 1562 1573 1575 1571 1559 1537 1501 1453 1390 1310 1225 1145 1099 1105 1156 1226 1291 1340 1370 1381 1383 1385 1381 1378 1371 1392 1417 1445 1451 1425 1361 1260 1137 1058 1098 1182 1247 1283 1268 1216 1160 1145 1183 1268 1380 1498 1610 1711 1788 1837 1864 1871 1869 1860 1835 1784 1711 1643 1600 1586 1589 1609 1641 1672 1678 1630 1496 1256 982 719 670 724 878 1064 1233 1349 1402 1382 1292 1134 925 688 437 193 -1 -1 -1 -1 -1 -1 -1
-1 -1 -1 -1 -1 -1 -1 -1 -1 -1 -1 -1 -1 -1 -1 -1 -1 -1 -1 98 241 402 553 673 754 781 758 690 610 542 516 529 558 560 553 521 480 452 414 434 498 611 753 882 975 1019 1010 962 890 821 782 812 861 895 904 884 853 817 788 772 789 821 879 956 1055 1142 1213 1260 1279 1268 1222 1124 970 824 775 919 1086 1231 1334 1404 1447 1483 1510 1534 1554 1566 1568 1568 1568 1562 1550 1532 1514 1500 1481 1453 1416 1364 1298 1218 1141 1095 1107 1164 1234 1302 1352 1376 1379 1369 1362 1362 1361 1378 1397 1420 1429 1421 1385 1314 1213 1100 1038 1088 1173 1240 1267 1256 1209 1158 1134 1162 1234 1333 1451 1571 1687 1790 1866 1913 1940 1943 1932 1904 1850 1784 1721 1687 1657 1657 1670 1701 1730 1733 1670 1511 1267 956 788 772 877 1021 1186 1334 1436 1468 1422 1301 1112 868 595 324 78 -1 -1 -1 -1 -1 -1 -1
-1 -1 -1 -1 -1 -1 -1 -1 -1 -1 -1 -1 -1 -1 -1 -1 -1 -1 112 260 401 529 650 734 775 762 694 585 474 397 386 416 446 460 444 414 371 321 307 315 399 538 686 834 951 1022 1044 1015 951 864 795 800 854 919 962 978 969 944 918 903 908 951 1005 1076 1159 1244 1311 1367 1394 1389 1346 1246 1080 887 798 888 1069 1243 1382 1477 1545 1586 1616 1632 1636 1625 1601 1571 1541 1513 1481 1453 1429 1416 1402 1387 1362 1322 1264 1192 1115 1073 1095 1157 1232 1300 1350 1376 1378 1369 1358 1357 1370 1385 1405 1412 1406 1381 1337 1266 1175 1076 1022 1070 1155 1221 1252 1244 1212 1165 1131 1150 1202 1286 1397 1520 1652 1772 1872 1945 1990 2011 2006 1981 1938 1882 1835 1792 1772 1749 1759 1780 1804 1800 1727 1568 1321 1080 949 963 1053 1187 1321 1444 1521 1526 1445 1280 1040 743 426 142 -1 -1 -1 -1 -1 -1 -1 -1
-1 -1 -1 -1 -1 -1 -1 -1 -1 -1 -1 -1 -1 -1 -1 -1 29 147 285 414 533 637 720 773 780 736 638 505 371 294 290 317 351 362 359 334 292 243 220 255 350 480 636 787 923 1022 1070 1067 1010 918 831 789 832 908 993 1048 1071 1067 1051 1036 1051 1083 1139 1204 1280 1355 1423 1476 1510 1509 1467 1362 1185 990 884 940 1094 1270 1423 1541 1622 1675 1702 1708 1689 1648 1588 1522 1466 1418 1378 1340 1324 1310 1302 1296 1286 1262 1214 1145 1074 1036 1071 1143 1220 1290 1337 1362 1369 1366 1365 1371 1385 1400 1407 1401 1373 1329 1278 1214 1141 1061 1010 1049 1128 1193 1229 1232 1206 1166 1130 1130 1169 1239 1340 1466 1604 1737 1857 1952 2025 2065 2077 2064 2036 1995 1948 1920 1886 1876 1863 1879 1891 1877 1806 1652 1445 1265 1166 1175 1257 1360 1470 1560 1606 1572 1449 1231 935 593 252 -1 -1 -1 -1 -1 -1 -1 -1 -1
-1 -1 -1 -1 -1 -1 -1 -1 -1 -1 -1 -1 -1 -1 33 130 229 335 443 546 636 709 763 790 777 713 608 470 354 272 233 245 270 286 285 271 245 202 200 249 322 446 591 747 893 1014 1089 1107 1070 980 878 808 803 886 992 1089 1149 1172 1176 1185 1191 1229 1275 1337 1404 1472 1538 1592 1625 1627 1582 1477 1303 1124 1039 1060 1172 1326 1480 1605 1693 1745 1770 1760 1716 1639 1534 1427 1342 1286 1237 1212 1188 1179 1172 1175 1185 1176 1143 1082 1014 987 1037 1126 1204 1264 1306 1329 1338 1345 1356 1373 1394 1409 1410 1389 1345 1282 1214 1157 1101 1047 997 1030 1089 1156 1200 1214 1198 1164 1130 1114 1136 1194 1290 1411 1550 1691 1825 1945 2038 2103 2137 2144 2129 2102 2069 2036 2019 1997 1991 1988 1986 1965 1893 1765 1601 1469 1396 1388 1446 1534 1615 1675 1682 1613 1448 1199 880 530 182 -1 -1 -1 -1 -1 -1 -1 -1 -1
-1 -1 -1 -1 -1 -1 -1 -1 -1 -1 -1 -1 -1 93 197 300 400 490 569 643 703 749 780 789 765 700 598 491 386 299 225 210 211 222 231 228 208 224 229 255 332 427 562 710 862 998 1097 1143 1128 1054 946 848 807 862 972 1098 1200 1261 1295 1316 1346 1369 1416 1465 1526 1592 1655 1710 1742 1739 1698 1593 1434 1285 1213 1228 1301 1417 1555 1674 1759 1807 1818 1791 1720 1604 1463 1311 1204 1132 1096 1056 1042 1018 1002 1025 1039 1060 1033 977 937 925 1016 1103 1173 1222 1252 1268 1280 1293 1322 1358 1390 1410 1409 1380 1325 1251 1165 1101 1062 1016 997 988 1052 1117 1170 1195 1190 1162 1130 1109 1118 1164 1249 1366 1504 1648 1789 1923 2038 2123 2179 2208 2211 2198 2180 2159 2135 2125 2108 2104 2088 2053 1990 1885 1771 1673 1610 1593 1628 1688 1749 1778 1751 1649 1476 1232 931 605 285 40 -1 -1 -1 -1 -1 -1 -1 -1
-1 -1 -1 -1 -1 -1 -1 -1 -1 -1 -1 6 113 222 329 431 521 595 654 699 734 759 774 773 746 686 603 508 418 330 256 191 176 183 197 192 223 250 273 297 346 437 543 683 833 979 1102 1173 1187 1137 1041 935 857 854 953 1086 1228 1333 1397 1444 1477 1518 1548 1593 1644 1707 1769 1821 1852 1853 1807 1711 1573 1456 1403 1410 1457 1544 1644 1751 1827 1862 1858 1810 1712 1573 1395 1240 1112 1053 1009 980 949 924 895 871 918 894 867 843 815 916 998 1076 1127 1157 1170 1178 1184 1215 1265 1325 1374 1403 1404 1377 1321 1241 1161 1079 1021 989 956 982 1017 1085 1141 1177 1183 1165 1136 1122 1127 1160 1230 1337 1465 1610 1761 1897 2024 2128 2205 2254 2276 2281 2276 2264 2249 2233 2222 2207 2186 2150 2087 2011 1931 1859 1803 1784 1798 1837 1868 1869 1815 1702 1532 1307 1043 754 480 254 94 -1 -1 -1 -1 -1 -1 -1
-1 -1 -1 -1 -1 -1 -1 -1 -1 -1 -1 71 192 311 419 513 593 654 695 720 736 747 753 751 722 663 584 497 413 336 262 207 172 176 179 207 234 275 310 336 380 448 552 670 812 965 1097 1197 1241 1232 1166 1069 977 920 947 1086 1239 1387 1490 1553 1602 1640 1681 1715 1763 1815 1873 1922 1954 1955 1916 1832 1724 1636 1588 1591 1621 1678 1753 1832 1892 1914 1892 1826 1713 1559 1399 1233 1154 1113 1090 1068 1047 1019 987 943 839 791 748 715 808 876 974 1032 1065 1070 1057 1046 1073 1124 1209 1291 1355 1392 1400 1377 1327 1259 1181 1102 1023 971 958 950 997 1057 1114 1159 1180 1176 1163 1159 1166 1190 1244 1332 1450 1587 1736 1880 2006 2125 2220 2285 2325 2345 2353 2350 2341 2330 2313 2298 2275 2238 2189 2128 2070 2017 1974 1947 1950 1961 1970 1950 1879 1760 1599 1400 1169 921 682 473 294 113 -1 -1 -1 -1 -1 -1
-1 -1 -1 -1 -1 -1 -1 -1 -1 -1 -1 90 225 350 463 555 624 674 703 715 720 725 733 728 695 628 542 451 371 305 253 210 218 222 224 212 247 284 324 364 403 469 557 676 813 953 1096 1209 1289 1318 1295 1227 1137 1060 1035 1100 1264 1425 1561 1654 1710 1759 1798 1837 1874 1921 1969 2014 2043 2044 2012 1948 1867 1797 1761 1753 1774 1814 1863 1916 1957 1964 1928 1846 1732 1602 1454 1333 1262 1237 1225 1210 1191 1168 1133 1067 992 915 854 817 738 838 898 962 974 956 915 903 949 1051 1167 1267 1340 1384 1397 1381 1339 1280 1212 1136 1066 1003 960 944 982 1033 1092 1140 1176 1194 1201 1209 1226 1251 1297 1369 1472 1596 1730 1869 2002 2118 2222 2303 2358 2391 2409 2413 2412 2402 2387 2369 2346 2314 2274 2231 2186 2146 2110 2089 2072 2068 2054 2017 1938 1819 1669 1490 1286 1069 855 651 452 243 28 -1 -1 -1 -1 -1
-1 -1 -1 -1 -1 -1 -1 -1 -1 -1 -1 68 210 344 464 559 628 669 691 697 697 706 718 709 668 587 483 383 300 258 226 250 272 284 276 259 235 277 318 363 416 476 563 671 801 948 1088 1223 1323 1388 1406 1377 1311 1234 1189 1199 1305 1469 1619 1734 1813 1866 1910 1947 1986 2023 2062 2096 2119 2120 2094 2046 1988 1937 1903 1894 1908 1931 1961 1994 2015 2008 1961 1880 1781 1668 1550 1455 1397 1365 1344 1326 1302 1274 1238 1190 1132 1068 1004 922 844 728 805 839 855 815 774 769 869 1012 1146 1255 1336 1382 1397 1380 1341 1289 1226 1159 1087 1028 976 980 980 1022 1062 1117 1169 1209 1236 1259 1287 1323 1369 1439 1525 1633 1753 1874 1998 2112 2218 2306 2373 2419 2443 2456 2455 2447 2432 2413 2390 2363 2335 2305 2273 2242 2215 2192 2171 2148 2120 2068 1985 1872 1733 1571 1384 1189 984 776 557 331 104 -1 -1 -1 -1 -1
-1 -1 -1 -1 -1 -1 -1 -1 -1 -1 -1 17 170 311 433 536 607 651 669 676 678 697 707 696 646 551 434 317 249 222 245 286 323 340 328 286 264 249 295 350 407 473 549 650 773 916 1071 1215 1341 1437 1491 1502 1473 1420 1367 1365 1406 1528 1675 1808 1898 1963 2010 2051 2086 2121 2146 2167 2180 2176 2155 2118 2076 2037 2010 2001 2009 2026 2042 2058 2061 2041 1991 1921 1834 1739 1643 1566 1511 1469 1437 1404 1371 1334 1296 1252 1201 1143 1080 1006 896 773 656 706 709 680 643 733 860 1004 1141 1257 1337 1384 1394 1373 1328 1270 1208 1142 1086 1029 1042 1033 1034 1019 1043 1098 1160 1215 1259 1297 1337 1381 1436 1502 1585 1680 1784 1892 1996 2103 2201 2295 2370 2423 2456 2469 2469 2459 2440 2419 2397 2376 2358 2342 2323 2303 2284 2263 2236 2204 2162 2101 2017 1910 1782 1632 1458 1266 1057 837 606 367 126 -1 -1 -1 -1 -1
-1 -1 -1 -1 -1 -1 -1 -1 -1 -1 -1 -1 119 262 389 492 569 616 644 651 674 691 699 686 635 540 414 322 267 266 290 328 367 384 374 331 284 278 289 338 397 453 521 609 724 864 1024 1184 1333 1456 1545 1595 1606 1588 1558 1535 1559 1623 1750 1871 1974 2046 2101 2139 2174 2198 2213 2219 2217 2203 2182 2152 2121 2093 2074 2067 2074 2085 2095 2099 2090 2061 2014 1950 1874 1793 1714 1644 1585 1536 1487 1439 1393 1347 1301 1254 1204 1153 1097 1030 934 785 609 579 574 556 647 751 888 1022 1155 1262 1344 1385 1390 1358 1301 1223 1155 1101 1058 1086 1095 1112 1101 1086 1073 1100 1157 1217 1272 1322 1371 1421 1476 1543 1616 1704 1795 1889 1985 2078 2175 2265 2346 2406 2442 2456 2451 2433 2406 2378 2354 2339 2333 2332 2331 2325 2313 2293 2265 2226 2178 2113 2028 1925 1801 1655 1484 1285 1065 827 585 338 91 -1 -1 -1 -1 -1
-1 -1 -1 -1 -1 -1 -1 -1 -1 -1 -1 -1 77 214 341 444 520 574 602 642 666 685 693 681 635 549 457 389 356 346 361 390 416 433 419 387 348 326 333 352 385 425 478 549 651 788 949 1124 1292 1443 1562 1648 1701 1721 1720 1711 1714 1754 1835 1944 2041 2117 2172 2212 2240 2254 2254 2241 2220 2194 2165 2140 2117 2100 2090 2089 2094 2104 2112 2110 2094 2063 2017 1957 1889 1817 1745 1677 1612 1550 1484 1421 1361 1303 1249 1198 1153 1110 1065 1010 926 789 623 489 482 579 682 802 926 1056 1173 1281 1351 1386 1379 1337 1258 1176 1096 1067 1094 1126 1165 1176 1181 1167 1152 1149 1173 1225 1283 1335 1386 1437 1489 1547 1612 1681 1762 1847 1937 2028 2122 2219 2304 2370 2409 2422 2405 2369 2327 2285 2257 2247 2256 2273 2292 2301 2299 2285 2253 2211 2159 2090 2003 1894 1771 1623 1446 1237 1002 750 497 246 0 -1 -1 -1 -1 -1
-1 -1 -1 -1 -1 -1 -1 -1 -1 -1 -1 -1 35 170 285 383 455 504 564 609 645 668 680 678 648 591 528 486 458 448 445 460 482 494 488 460 425 398 386 383 382 395 421 470 558 689 854 1035 1223 1397 1549 1669 1757 1814 1843 1858 1865 1887 1942 2022 2110 2180 2232 2267 2285 2283 2260 2225 2183 2141 2108 2083 2067 2059 2058 2063 2072 2084 2091 2090 2073 2039 1992 1936 1870 1799 1730 1661 1589 1511 1429 1347 1274 1202 1138 1089 1050 1018 988 949 878 768 613 484 529 633 746 858 974 1094 1207 1299 1364 1387 1368 1305 1229 1140 1130 1126 1134 1180 1217 1241 1245 1245 1230 1221 1228 1253 1294 1343 1387 1429 1469 1510 1554 1607 1672 1748 1835 1931 2040 2151 2249 2323 2369 2375 2342 2276 2204 2144 2105 2098 2124 2167 2204 2234 2245 2235 2207 2157 2102 2027 1932 1814 1686 1536 1354 1135 885 619 359 112 -1 -1 -1 -1 -1 -1
-1 -1 -1 -1 -1 -1 -1 -1 -1 -1 -1 -1 -1 100 205 285 347 411 478 542 592 632 659 674 668 645 611 580 564 552 545 545 558 575 571 548 512 476 449 418 394 373 375 398 461 581 752 936 1130 1326 1507 1659 1778 1868 1928 1966 1991 2015 2051 2109 2176 2237 2282 2309 2314 2293 2243 2177 2110 2053 2015 1995 1983 1979 1988 1997 2015 2029 2043 2044 2025 1987 1935 1877 1809 1736 1667 1595 1517 1426 1326 1229 1137 1056 986 937 906 888 877 847 796 696 587 503 586 703 813 920 1028 1139 1243 1327 1378 1390 1353 1291 1205 1204 1198 1207 1217 1232 1264 1289 1303 1303 1300 1289 1289 1299 1322 1350 1379 1403 1420 1434 1448 1477 1524 1595 1686 1802 1937 2074 2189 2278 2326 2325 2273 2171 2054 1962 1907 1904 1947 2014 2077 2126 2152 2147 2114 2067 1999 1918 1818 1697 1553 1402 1219 995 737 465 200 -1 -1 -1 -1 -1 -1 -1
-1 -1 -1 -1 -1 -1 -1 -1 -1 -1 -1 -1 -1 -1 71 135 195 264 344 430 516 587 640 672 690 693 686 673 660 655 649 643 652 659 665 644 609 567 522 474 417 378 356 361 400 495 644 839 1036 1242 1446 1625 1773 1887 1977 2040 2086 2120 2153 2194 2243 2290 2325 2342 2331 2291 2220 2132 2034 1957 1916 1894 1881 1883 1892 1916 1934 1958 1974 1979 1960 1914 1848 1775 1700 1625 1555 1484 1401 1306 1197 1084 986 897 825 768 747 742 736 724 669 602 512 562 646 762 875 982 1087 1186 1282 1356 1398 1396 1354 1284 1270 1267 1284 1288 1290 1293 1306 1329 1346 1353 1350 1346 1339 1344 1352 1362 1365 1362 1352 1336 1325 1320 1357 1432 1545 1691 1858 2007 2138 2234 2285 2282 2210 2077 1901 1756 1676 1670 1736 1827 1918 1986 2021 2018 1986 1929 1852 1764 1658 1533 1388 1225 1047 827 570 301 47 -1 -1 -1 -1 -1 -1 -1
-1 -1 -1 -1 -1 -1 -1 -1 -1 -1 -1 -1 -1 -1 -1 -1 -1 77 183 316 453 566 642 688 713 735 749 754 753 752 752 748 749 755 756 746 715 670 619 553 475 413 373 355 377 446 575 748 957 1171 1379 1576 1742 1885 1994 2082 2145 2196 2234 2271 2306 2341 2362 2364 2341 2290 2213 2113 2006 1915 1860 1832 1813 1800 1816 1829 1858 1882 1904 1908 1886 1826 1733 1631 1540 1465 1397 1329 1258 1166 1056 948 854 781 711 660 615 607 603 574 542 476 531 608 707 815 929 1037 1140 1236 1319 1388 1421 1414 1372 1344 1335 1345 1354 1359 1353 1345 1350 1362 1379 1388 1390 1386 1380 1376 1375 1367 1348 1315 1275 1238 1203 1194 1233 1323 1465 1630 1799 1961 2092 2194 2251 2245 2165 1997 1779 1553 1420 1421 1503 1621 1732 1814 1854 1848 1817 1747 1661 1563 1450 1317 1170 1015 837 630 393 140 -1 -1 -1 -1 -1 -1 -1 -1
-1 -1 -1 -1 -1 -1 -1 -1 -1 -1 -1 -1 -1 -1 -1 -1 -1 -1 55 244 416 550 647 708 748 776 803 824 836 844 846 852 850 852 852 846 822 782 730 657 569 489 422 385 386 445 557 719 912 1127 1337 1529 1713 1864 1999 2098 2183 2245 2293 2330 2360 2381 2391 2379 2344 2293 2218 2130 2036 1954 1902 1863 1831 1801 1767 1774 1789 1814 1835 1840 1811 1737 1606 1458 1340 1259 1200 1155 1094 1024 938 850 785 734 706 665 614 540 490 470 410 453 538 647 751 858 972 1085 1190 1280 1360 1418 1450 1446 1423 1407 1405 1410 1411 1409 1400 1389 1385 1390 1402 1409 1410 1405 1398 1390 1377 1357 1321 1268 1207 1154 1126 1126 1173 1284 1424 1592 1760 1920 2060 2161 2221 2218 2130 1951 1679 1381 1169 1146 1249 1395 1529 1616 1654 1647 1595 1524 1431 1321 1191 1056 915 766 602 421 212 18 -1 -1 -1 -1 -1 -1 -1 -1
-1 -1 -1 -1 -1 -1 -1 -1 -1 -1 -1 -1 -1 -1 -1 -1 -1 -1 -1 203 390 541 649 726 782 823 856 882 906 921 933 941 947 947 945 939 923 889 840 773 687 598 520 457 440 485 601 759 942 1131 1328 1523 1693 1858 1992 2113 2201 2276 2333 2374 2399 2412 2406 2383 2343 2289 2225 2153 2084 2021 1965 1922 1879 1830 1784 1739 1739 1757 1781 1784 1754 1663 1503 1322 1152 1051 1026 989 949 905 854 803 770 754 734 703 646 579 509 412 378 427 526 651 772 887 1005 1116 1226 1320 1397 1454 1481 1487 1475 1464 1461 1459 1453 1443 1431 1418 1409 1407 1409 1409 1405 1398 1388 1375 1358 1330 1287 1228 1159 1109 1090 1111 1168 1262 1401 1556 1722 1884 2026 2135 2195 2193 2103 1904 1595 1230 936 860 988 1168 1313 1396 1425 1394 1332 1258 1162 1040 904 767 639 506 370 222 84 -1 -1 -1 -1 -1 -1 -1 -1 -1
-1 -1 -1 -1 -1 -1 -1 -1 -1 -1 -1 -1 -1 -1 -1 -1 -1 -1 -1 192 382 539 659 745 813 868 906 939 963 985 1002 1015 1024 1024 1022 1015 1002 979 938 878 806 730 647 578 550 586 694 852 1022 1201 1379 1546 1711 1860 1998 2116 2216 2297 2359 2401 2424 2426 2408 2372 2324 2270 2213 2159 2105 2053 2004 1956 1905 1852 1793 1742 1709 1724 1745 1755 1720 1622 1475 1267 1094 992 942 914 880 846 815 793 776 758 734 696 648 595 525 459 402 391 499 631 766 895 1018 1140 1249 1348 1427 1481 1513 1522 1517 1508 1499 1487 1471 1454 1438 1423 1410 1400 1392 1383 1373 1364 1349 1335 1315 1288 1246 1191 1137 1093 1090 1112 1163 1250 1365 1514 1679 1843 1990 2104 2172 2169 2068 1852 1509 1092 716 606 754 948 1077 1147 1137 1088 1023 951 858 738 609 487 384 292 201 106 39 38 14 -1 -1 -1 -1 -1 -1 -1
-1 -1 -1 -1 -1 -1 -1 -1 -1 -1 -1 -1 -1 -1 -1 -1 -1 -1 56 227 400 551 674 770 846 908 954 987 1014 1035 1053 1066 1074 1076 1070 1062 1049 1029 998 956 903 846 788 726 696 732 826 971 1138 1296 1454 1611 1754 1889 2015 2126 2229 2311 2375 2417 2435 2426 2393 2339 2278 2220 2168 2123 2083 2042 1998 1949 1897 1840 1785 1737 1704 1712 1739 1747 1712 1632 1491 1336 1189 1089 1023 968 916 867 820 781 741 706 668 620 577 538 502 450 397 378 473 611 746 879 1017 1145 1262 1361 1442 1499 1534 1547 1545 1534 1516 1491 1463 1437 1416 1398 1381 1365 1349 1332 1321 1305 1291 1275 1255 1231 1201 1163 1124 1102 1088 1109 1145 1213 1320 1463 1624 1794 1946 2071 2145 2143 2036 1801 1444 970 594 426 548 704 818 835 803 747 682 624 542 444 347 270 218 178 152 153 168 175 159 82 -1 -1 -1 -1 -1 -1
-1 -1 -1 -1 -1 -1 -1 -1 -1 -1 -1 -1 -1 -1 -1 -1 -1 59 164 294 442 584 700 800 882 944 993 1028 1052 1067 1081 1090 1093 1090 1082 1070 1052 1030 1010 986 959 935 905 876 857 884 969 1100 1250 1395 1539 1678 1813 1936 2047 2153 2243 2323 2385 2424 2435 2416 2364 2287 2206 2136 2086 2052 2024 1992 1953 1905 1851 1797 1753 1716 1717 1729 1748 1757 1736 1667 1565 1452 1338 1238 1150 1064 981 900 817 729 651 587 551 515 455 453 434 397 348 385 473 592 728 866 1001 1133 1256 1359 1445 1505 1542 1557 1553 1536 1506 1466 1423 1388 1364 1341 1320 1302 1281 1269 1250 1238 1221 1205 1188 1171 1157 1143 1130 1114 1109 1099 1117 1167 1265 1399 1568 1737 1901 2032 2116 2117 2009 1778 1407 999 598 431 406 512 542 526 476 422 383 334 281 224 186 170 183 214 262 310 345 344 287 171 9 -1 -1 -1 -1 -1
-1 -1 -1 -1 -1 -1 -1 -1 -1 -1 -1 -1 -1 -1 -1 -1 53 162 271 391 508 626 740 835 915 977 1022 1051 1067 1076 1079 1078 1074 1065 1052 1037 1014 992 974 968 972 981 990 992 1002 1031 1098 1211 1349 1486 1616 1747 1869 1984 2089 2183 2268 2336 2389 2423 2430 2401 2334 2237 2122 2030 1977 1954 1938 1918 1882 1836 1791 1746 1727 1727 1737 1756 1776 1785 1772 1723 1649 1560 1457 1343 1229 1109 992 878 761 652 538 496 470 450 458 414 394 361 346 387 465 587 709 848 986 1114 1238 1349 1433 1500 1537 1552 1542 1514 1470 1416 1358 1309 1280 1251 1231 1212 1205 1192 1184 1167 1151 1141 1127 1121 1120 1136 1149 1152 1146 1129 1116 1135 1211 1340 1503 1681 1851 1997 2086 2096 1996 1778 1475 1117 805 611 526 438 404 357 306 260 224 199 176 167 178 227 296 376 453 510 524 482 379 220 25 -1 -1 -1 -1 -1
-1 -1 -1 -1 -1 -1 -1 -1 -1 -1 -1 -1 -1 -1 -1 -1 70 212 340 463 577 684 782 871 945 1000 1036 1051 1055 1051 1044 1032 1019 1005 989 967 947 923 913 923 959 999 1034 1068 1100 1145 1207 1307 1429 1560 1684 1800 1918 2022 2122 2208 2283 2344 2389 2416 2420 2389 2318 2200 2065 1942 1867 1853 1847 1835 1814 1775 1754 1752 1754 1764 1773 1791 1813 1826 1816 1782 1717 1628 1510 1368 1217 1064 907 777 673 573 576 559 543 546 526 511 473 435 394 377 457 562 698 825 965 1098 1222 1330 1422 1484 1522 1529 1511 1468 1408 1336 1268 1209 1168 1141 1111 1112 1110 1126 1121 1111 1098 1088 1086 1087 1112 1147 1183 1207 1211 1197 1170 1154 1187 1293 1448 1628 1804 1958 2060 2087 2012 1839 1595 1316 1076 908 771 664 558 481 413 352 311 289 296 300 350 418 513 607 678 701 674 575 417 211 -1 -1 -1 -1 -1 -1
-1 -1 -1 -1 -1 -1 -1 -1 -1 -1 -1 -1 -1 -1 -1 -1 50 212 368 500 624 729 825 904 968 1012 1030 1025 1011 995 976 956 939 923 901 886 862 851 849 892 947 1004 1050 1096 1150 1207 1283 1370 1482 1605 1726 1840 1947 2051 2142 2221 2286 2339 2377 2399 2402 2377 2310 2199 2054 1914 1826 1796 1792 1789 1782 1788 1795 1803 1814 1824 1831 1840 1858 1872 1866 1830 1760 1651 1497 1310 1108 921 779 648 610 654 678 704 702 682 666 634 596 533 450 398 439 549 668 811 941 1077 1202 1313 1402 1465 1497 1496 1462 1405 1327 1237 1152 1091 1045 1003 1001 995 1046 1069 1082 1075 1064 1060 1062 1079 1117 1173 1227 1269 1294 1290 1268 1237 1235 1296 1425 1592 1767 1922 2038 2088 2052 1929 1744 1545 1364 1212 1089 977 872 770 687 621 571 557 557 593 621 700 784 857 891 870 777 620 399 150 -1 -1 -1 -1 -1 -1
-1 -1 -1 -1 -1 -1 -1 -1 -1 -1 -1 -1 -1 -1 -1 -1 20 191 359 516 644 763 855 932 986 1011 1005 975 941 914 888 869 850 833 819 799 797 794 836 887 946 992 1038 1084 1140 1216 1302 1405 1512 1628 1747 1862 1967 2063 2148 2217 2272 2315 2345 2365 2373 2357 2309 2217 2092 1964 1877 1847 1843 1836 1844 1856 1871 1887 1894 1895 1901 1905 1915 1922 1912 1867 1780 1641 1445 1202 961 782 675 688 730 775 827 850 853 831 795 758 704 623 513 429 452 535 663 788 931 1054 1178 1288 1379 1440 1465 1453 1406 1328 1237 1122 1027 960 908 893 879 947 1001 1052 1066 1062 1054 1051 1059 1088 1137 1205 1277 1337 1373 1393 1386 1367 1355 1381 1469 1606 1756 1908 2027 2098 2098 2024 1905 1769 1632 1502 1388 1285 1191 1095 1008 939 904 886 902 916 954 997 1059 1089 1073 995 850 631 360 68 -1 -1 -1 -1 -1 -1
-1 -1 -1 -1 -1 -1 -1 -1 -1 -1 -1 -1 -1 -1 -1 -1 12 176 348 510 659 775 877 951 996 1002 966 908 858 821 801 784 772 761 743 749 758 801 842 892 929 954 975 1012 1075 1166 1280 1399 1519 1640 1759 1871 1973 2063 2136 2193 2233 2263 2287 2308 2321 2328 2303 2243 2153 2059 1989 1959 1944 1943 1941 1955 1970 1978 1984 1984 1979 1981 1979 1976 1952 1893 1787 1625 1398 1148 922 780 792 830 894 945 969 992 985 960 923 870 804 708 589 493 477 559 659 793 915 1044 1155 1264 1353 1409 1428 1406 1344 1253 1141 1008 900 829 804 788 857 930 1003 1044 1060 1058 1051 1054 1068 1103 1165 1243 1326 1397 1453 1487 1507 1509 1508 1525 1582 1681 1805 1923 2040 2119 2145 2117 2052 1959 1858 1757 1653 1560 1470 1390 1314 1255 1223 1218 1228 1247 1256 1284 1293 1284 1220 1091 896 638 328 10 -1 -1 -1 -1 -1 -1
-1 -1 -1 -1 -1 -1 -1 -1 -1 -1 -1 -1 3 26 18 23 71 192 354 515 663 791 890 965 1001 989 935 848 782 751 729 724 721 713 719 735 779 816 852 874 880 871 860 881 957 1085 1226 1369 1507 1639 1763 1874 1971 2048 2105 2139 2158 2172 2189 2216 2248 2276 2287 2267 2217 2156 2110 2078 2063 2052 2054 2059 2070 2076 2076 2072 2067 2057 2047 2030 1991 1918 1799 1633 1430 1213 1044 980 982 1028 1071 1104 1121 1113 1104 1077 1035 980 902 802 684 592 556 592 690 794 917 1025 1142 1244 1327 1379 1390 1358 1284 1180 1056 911 788 735 717 773 855 944 1001 1033 1040 1033 1034 1047 1085 1129 1196 1280 1370 1452 1520 1574 1612 1640 1655 1681 1726 1799 1889 1987 2080 2157 2196 2200 2168 2113 2043 1961 1882 1793 1715 1643 1591 1543 1510 1505 1517 1526 1525 1510 1495 1438 1331 1163 939 656 335 36 -1 -1 -1 -1 -1 -1
-1 -1 -1 -1 -1 -1 -1 -1 -1 -1 -1 -1 41 96 131 146 176 259 392 540 678 802 906 976 1004 985 917 835 753 709 694 691 694 713 733 764 794 819 828 819 792 743 715 731 848 1003 1171 1333 1489 1631 1758 1868 1953 2015 2046 2051 2040 2031 2050 2088 2146 2207 2257 2280 2270 2243 2211 2187 2170 2163 2156 2162 2165 2169 2165 2158 2144 2131 2109 2079 2031 1951 1840 1693 1522 1359 1256 1208 1202 1217 1240 1253 1249 1232 1205 1175 1133 1073 994 899 793 711 669 668 721 814 910 1023 1124 1227 1306 1351 1354 1311 1227 1110 978 834 718 666 698 770 865 938 981 990 976 965 969 1027 1093 1157 1227 1313 1409 1499 1578 1645 1700 1744 1781 1815 1862 1920 1990 2066 2141 2204 2248 2263 2256 2226 2180 2123 2057 1990 1917 1861 1816 1786 1761 1744 1746 1747 1730 1696 1642 1554 1413 1226 988 707 406 117 -1 -1 -1 -1 -1 -1
-1 -1 -1 -1 -1 -1 -1 -1 -1 -1 -1 -1 30 128 197 248 290 354 460 583 709 828 922 987 1012 987 927 843 768 709 681 678 698 722 750 772 787 785 763 726 668 614 575 658 795 963 1134 1307 1472 1619 1746 1845 1914 1949 1946 1914 1866 1844 1861 1939 2036 2137 2224 2279 2302 2302 2290 2273 2261 2255 2251 2246 2248 2246 2241 2229 2212 2189 2162 2123 2069 1995 1897 1774 1641 1527 1460 1414 1391 1386 1382 1376 1357 1328 1292 1252 1208 1150 1076 987 894 820 774 757 769 826 914 1009 1118 1209 1283 1323 1319 1267 1172 1046 909 775 672 650 685 776 859 912 926 902 873 844 907 1005 1093 1177 1258 1343 1438 1536 1623 1699 1764 1821 1873 1922 1969 2024 2083 2145 2201 2252 2288 2309 2311 2300 2272 2233 2186 2134 2079 2033 1999 1977 1954 1937 1924 1909 1877 1827 1748 1636 1480 1284 1052 786 504 228 -1 -1 -1 -1 -1 -1
-1 -1 -1 -1 -1 -1 -1 -1 -1 -1 -1 -1 -1 106 216 305 380 450 532 638 750 852 944 1003 1024 1002 944 867 785 722 681 676 690 716 737 746 740 713 668 605 550 496 556 658 809 970 1137 1298 1459 1604 1723 1806 1846 1840 1799 1721 1648 1603 1673 1805 1952 2088 2193 2267 2311 2331 2335 2330 2324 2321 2316 2312 2307 2303 2293 2278 2258 2232 2200 2157 2105 2039 1954 1857 1762 1684 1621 1575 1539 1511 1492 1465 1432 1392 1346 1303 1258 1204 1135 1055 973 902 847 812 805 831 901 998 1097 1190 1258 1293 1284 1226 1124 991 847 724 649 643 702 778 836 856 833 796 741 777 880 985 1093 1183 1274 1366 1461 1557 1652 1736 1811 1875 1937 1995 2048 2100 2152 2203 2247 2283 2312 2330 2337 2333 2319 2295 2264 2229 2191 2158 2135 2112 2091 2072 2050 2019 1975 1911 1819 1696 1537 1344 1119 868 602 334 74 -1 -1 -1 -1 -1
-1 -1 -1 -1 -1 -1 -1 -1 -1 -1 -1 -1 -1 42 185 317 428 516 599 693 791 886 965 1021 1040 1018 962 881 799 722 669 644 655 675 688 683 659 617 557 506 455 505 590 722 858 1013 1165 1318 1457 1588 1684 1737 1739 1690 1599 1486 1390 1399 1545 1735 1912 2057 2171 2249 2303 2333 2346 2349 2350 2350 2350 2346 2341 2331 2319 2302 2280 2253 2219 2179 2131 2072 2002 1926 1856 1795 1740 1688 1642 1600 1560 1516 1468 1413 1360 1313 1271 1223 1163 1094 1021 950 884 828 796 813 874 970 1072 1162 1229 1262 1252 1193 1091 950 813 697 647 654 707 763 791 776 739 683 700 769 875 989 1085 1184 1275 1373 1474 1571 1666 1757 1839 1913 1980 2042 2096 2147 2192 2234 2267 2292 2311 2323 2330 2329 2322 2308 2289 2269 2248 2231 2213 2195 2172 2150 2123 2084 2030 1955 1857 1731 1577 1392 1175 933 677 408 145 -1 -1 -1 -1 -1
-1 -1 -1 -1 -1 -1 -1 -1 -1 -1 -1 -1 -1 -1 119 281 423 543 644 736 830 917 989 1039 1054 1030 970 890 798 707 626 583 584 605 611 595 562 508 464 427 488 559 669 793 928 1065 1209 1339 1464 1557 1622 1632 1586 1490 1361 1229 1164 1283 1491 1707 1898 2048 2153 2230 2277 2306 2321 2330 2336 2342 2345 2343 2338 2328 2314 2297 2277 2252 2220 2182 2139 2088 2029 1970 1914 1862 1809 1757 1705 1653 1597 1534 1462 1387 1324 1274 1236 1198 1155 1100 1036 967 891 816 763 765 838 938 1040 1129 1196 1229 1221 1168 1069 948 812 721 667 664 690 721 720 698 655 660 708 792 891 997 1096 1183 1281 1380 1477 1579 1673 1764 1852 1931 2002 2063 2116 2162 2201 2232 2254 2269 2279 2286 2289 2290 2285 2278 2269 2258 2253 2246 2235 2219 2201 2180 2151 2108 2048 1968 1865 1741 1594 1415 1207 970 709 441 168 -1 -1 -1 -1 -1
-1 -1 -1 -1 -1 -1 -1 -1 -1 -1 -1 -1 -1 -1 35 214 383 532 661 768 861 947 1015 1057 1066 1036 971 878 772 662 559 494 497 518 521 500 452 413 385 454 531 635 740 860 986 1112 1235 1351 1443 1504 1522 1483 1390 1253 1097 996 1073 1264 1496 1720 1902 2041 2137 2197 2231 2253 2264 2274 2287 2298 2305 2306 2302 2291 2277 2264 2246 2226 2198 2163 2122 2077 2029 1979 1931 1885 1837 1787 1735 1677 1610 1526 1427 1322 1235 1181 1149 1130 1104 1070 1023 960 884 794 720 729 804 904 1004 1092 1157 1193 1191 1146 1066 961 863 773 706 659 655 656 653 635 659 692 750 832 923 1017 1116 1206 1299 1397 1495 1585 1675 1765 1847 1929 2000 2060 2108 2147 2175 2195 2204 2210 2212 2217 2219 2219 2214 2213 2206 2207 2209 2209 2205 2197 2184 2169 2141 2096 2033 1948 1844 1719 1573 1401 1198 963 702 419 134 -1 -1 -1 -1 -1
-1 -1 -1 -1 -1 -1 -1 -1 -1 -1 -1 -1 -1 -1 -1 147 329 504 652 779 883 970 1036 1073 1074 1035 957 847 724 596 479 406 409 438 435 400 363 326 382 455 560 667 782 896 1014 1128 1232 1322 1382 1403 1371 1291 1156 988 861 883 1079 1312 1542 1746 1912 2028 2105 2145 2165 2169 2182 2192 2206 2223 2235 2243 2238 2228 2217 2204 2191 2175 2155 2123 2082 2037 1996 1952 1909 1866 1825 1783 1734 1677 1604 1505 1382 1246 1119 1044 1019 1013 1014 1004 982 937 866 777 697 707 770 866 967 1054 1117 1151 1157 1129 1070 993 911 828 742 668 614 602 599 637 687 752 815 885 969 1058 1148 1243 1330 1422 1508 1593 1673 1753 1835 1906 1973 2028 2068 2096 2114 2118 2120 2114 2119 2118 2124 2117 2117 2110 2118 2118 2124 2129 2133 2131 2135 2125 2099 2058 1992 1905 1796 1665 1518 1350 1151 916 651 360 61 -1 -1 -1 -1 -1
-1 -1 -1 -1 -1 -1 -1 -1 -1 -1 -1 -1 -1 -1 -1 114 299 474 641 777 892 983 1049 1082 1078 1031 940 814 669 529 413 343 356 369 364 330 283 305 340 423 529 652 766 879 987 1090 1180 1243 1269 1245 1178 1061 899 758 740 922 1145 1384 1599 1777 1909 2000 2048 2069 2064 2069 2071 2085 2100 2124 2147 2157 2157 2144 2135 2121 2111 2104 2087 2060 2021 1976 1930 1888 1847 1808 1774 1744 1706 1652 1582 1484 1353 1197 1031 913 872 877 892 917 921 897 842 767 700 668 724 826 926 1011 1070 1106 1119 1105 1066 1007 936 858 769 672 603 570 593 642 724 800 873 945 1020 1102 1191 1277 1365 1438 1517 1587 1658 1733 1800 1866 1922 1967 1995 2013 2012 2013 2000 2002 1992 2004 1998 1996 1986 1992 1998 2001 2005 2017 2028 2045 2058 2054 2036 1997 1936 1847 1733 1597 1441 1275 1075 846 581 293 -1 -1 -1 -1 -1 -1
-1 -1 -1 -1 -1 -1 -1 -1 -1 -1 -1 -1 -1 -1 -1 150 312 483 636 781 894 988 1055 1088 1080 1027 929 791 641 503 402 347 312 323 312 282 291 285 310 355 470 580 697 799 899 992 1068 1110 1106 1049 952 814 684 646 807 1014 1250 1467 1649 1793 1892 1948 1967 1957 1949 1937 1936 1952 1984 2009 2040 2058 2056 2049 2030 2016 2016 2009 1996 1970 1937 1889 1841 1792 1749 1715 1694 1674 1650 1608 1549 1462 1344 1195 1025 868 784 756 790 818 845 843 809 753 686 648 689 781 883 962 1019 1058 1075 1072 1043 995 935 862 776 683 602 571 582 648 733 828 914 993 1071 1148 1226 1305 1377 1443 1499 1556 1615 1677 1739 1797 1845 1876 1895 1893 1893 1873 1872 1856 1864 1859 1856 1842 1843 1847 1846 1853 1861 1884 1910 1941 1960 1965 1953 1923 1867 1781 1664 1522 1362 1182 987 766 518 242 -1 -1 -1 -1 -1 -1
-1 -1 -1 -1 -1 -1 -1 -1 -1 -1 -1 -1 -1 -1 63 217 371 517 658 788 901 994 1058 1091 1083 1029 928 800 662 541 452 387 339 288 282 314 334 352 352 378 395 495 580 672 761 844 908 938 908 836 728 622 583 728 915 1139 1350 1533 1681 1787 1847 1869 1857 1834 1802 1780 1781 1810 1842 1889 1927 1945 1951 1932 1910 1900 1894 1895 1880 1862 1827 1789 1730 1670 1623 1594 1581 1577 1568 1550 1505 1439 1346 1218 1072 929 819 750 712 740 765 779 764 723 667 632 674 758 840 913 966 1004 1026 1027 1007 963 908 839 761 677 606 564 579 638 738 839 941 1028 1110 1184 1252 1313 1368 1412 1449 1486 1532 1586 1644 1697 1738 1761 1763 1763 1738 1735 1708 1714 1707 1701 1684 1676 1678 1670 1683 1680 1704 1738 1781 1812 1845 1863 1861 1839 1790 1706 1589 1447 1279 1094 899 690 464 227 -1 -1 -1 -1 -1 -1
-1 -1 -1 -1 -1 -1 -1 -1 -1 -1 -1 -1 -1 27 160 301 444 572 693 808 912 997 1061 1093 1086 1036 946 830 709 599 507 433 367 324 311 368 412 433 449 440 438 419 477 525 593 666 721 735 702 633 560 536 666 838 1050 1250 1432 1580 1689 1752 1775 1763 1733 1686 1636 1610 1621 1655 1709 1765 1808 1833 1828 1806 1781 1762 1760 1751 1755 1736 1715 1662 1595 1525 1472 1445 1438 1453 1472 1469 1452 1408 1339 1244 1129 1008 896 797 734 687 703 709 706 683 643 623 668 743 816 872 916 949 968 973 958 917 861 794 721 651 590 561 577 651 745 857 956 1052 1131 1200 1255 1297 1324 1344 1357 1378 1411 1462 1520 1573 1607 1618 1620 1596 1590 1559 1555 1544 1539 1524 1502 1497 1479 1486 1484 1509 1529 1580 1630 1680 1720 1752 1764 1752 1704 1621 1510 1364 1193 1005 809 612 410 213 6 -1 -1 -1 -1 -1
-1 -1 -1 -1 -1 -1 -1 -1 -1 -1 -1 -1 2 128 260 388 517 636 743 839 926 1004 1061 1093 1090 1046 970 868 754 644 544 455 391 348 381 432 483 520 536 545 521 489 437 438 457 517 544 542 530 497 501 631 783 974 1162 1341 1487 1599 1666 1690 1678 1644 1592 1526 1471 1442 1467 1518 1581 1647 1696 1710 1700 1670 1640 1614 1594 1604 1608 1624 1594 1526 1437 1355 1297 1264 1276 1313 1352 1377 1376 1359 1316 1250 1164 1063 957 863 775 708 655 654 650 637 620 621 675 739 795 835 864 884 902 909 896 859 803 732 661 601 564 557 611 687 782 880 976 1062 1134 1188 1224 1239 1242 1231 1226 1233 1261 1324 1387 1437 1463 1468 1448 1443 1408 1397 1381 1370 1363 1335 1320 1288 1289 1272 1284 1294 1354 1412 1475 1538 1594 1638 1664 1657 1614 1534 1423 1276 1097 907 712 518 341 164 -1 -1 -1 -1 -1 -1
-1 -1 -1 -1 -1 -1 -1 -1 -1 -1 -1 -1 92 218 344 469 588 695 791 875 946 1009 1059 1089 1090 1057 990 898 788 673 557 461 388 389 425 485 545 592 628 644 642 602 559 520 499 471 470 473 476 509 628 763 933 1100 1261 1401 1511 1580 1608 1599 1564 1512 1442 1377 1316 1310 1340 1400 1476 1546 1585 1589 1563 1527 1482 1440 1426 1433 1476 1499 1482 1395 1269 1165 1093 1069 1100 1162 1223 1265 1286 1283 1264 1225 1164 1083 993 903 816 733 665 613 604 600 602 639 687 734 767 786 798 814 828 836 823 794 737 665 595 554 539 592 659 741 825 910 991 1060 1114 1147 1158 1146 1118 1083 1055 1053 1106 1178 1249 1295 1314 1300 1292 1255 1239 1214 1201 1200 1175 1151 1108 1103 1064 1059 1044 1103 1170 1246 1322 1394 1466 1523 1554 1556 1521 1445 1330 1178 995 799 602 411 241 81 -1 -1 -1 -1 -1 -1
-1 -1 -1 -1 -1 -1 -1 -1 -1 -1 -1 47 167 289 413 532 642 742 824 895 956 1005 1046 1073 1079 1058 1005 921 812 685 566 457 398 401 447 515 589 653 704 743 755 743 716 689 653 620 607 608 637 703 803 935 1073 1212 1334 1433 1500 1529 1523 1492 1443 1378 1308 1237 1216 1216 1247 1317 1403 1467 1487 1463 1424 1371 1305 1262 1244 1290 1345 1386 1373 1279 1117 971 884 869 924 1014 1096 1152 1178 1188 1185 1167 1128 1070 996 914 830 746 670 611 578 580 616 655 696 720 728 721 721 729 746 752 749 722 667 597 541 523 572 629 711 788 860 929 990 1037 1066 1075 1057 1019 965 905 861 883 946 1033 1108 1157 1156 1147 1112 1085 1051 1036 1029 1012 998 953 933 879 857 811 852 915 997 1081 1169 1255 1339 1404 1442 1450 1422 1352 1235 1074 887 686 484 293 124 -1 -1 -1 -1 -1 -1 -1
-1 -1 -1 -1 -1 -1 -1 -1 -1 -1 -1 102 223 346 463 575 678 765 833 887 929 968 1001 1030 1048 1045 1010 940 833 703 567 465 410 406 450 526 613 696 767 820 856 869 866 854 837 819 818 833 866 920 998 1092 1195 1293 1375 1433 1457 1449 1422 1382 1331 1266 1195 1162 1145 1159 1208 1286 1360 1406 1395 1345 1274 1196 1131 1075 1097 1153 1231 1282 1275 1180 999 816 707 691 774 886 981 1037 1060 1073 1085 1081 1063 1025 966 895 818 739 665 609 578 593 629 671 698 699 674 646 631 637 658 674 671 646 597 546 516 558 612 681 746 813 873 922 962 986 991 973 934 870 796 720 695 731 814 909 986 1019 1019 982 944 904 876 870 847 844 813 795 735 692 622 628 666 738 821 920 1023 1127 1220 1290 1331 1341 1316 1253 1135 978 785 577 370 173 3 -1 -1 -1 -1 -1 -1 -1
-1 -1 -1 -1 -1 -1 -1 -1 -1 -1 -1 125 256 379 494 598 687 758 804 830 853 876 911 951 987 1009 999 950 854 722 581 478 429 425 456 529 625 723 812 885 938 974 992 995 996 996 1009 1028 1056 1097 1148 1212 1275 1333 1378 1397 1388 1360 1323 1286 1239 1189 1138 1119 1121 1155 1217 1289 1348 1360 1318 1228 1113 1022 940 947 960 1052 1139 1198 1193 1102 924 726 587 594 681 794 876 918 932 946 957 974 974 957 915 857 788 716 652 607 594 612 649 682 698 679 624 568 540 553 578 595 593 568 541 512 546 596 658 713 765 812 853 886 906 909 893 854 793 717 629 572 567 642 743 832 892 906 871 826 777 731 725 696 702 676 673 622 566 493 470 460 502 567 663 777 904 1021 1122 1188 1220 1227 1207 1147 1041 882 690 479 261 62 -1 -1 -1 -1 -1 -1 -1 -1
-1 -1 -1 -1 -1 -1 -1 -1 -1 -1 -1 114 253 382 494 592 664 708 727 724 715 733 771 830 896 954 979 954 874 754 621 520 481 473 493 547 641 747 846 932 1003 1052 1087 1107 1120 1133 1149 1167 1187 1208 1239 1270 1299 1324 1337 1332 1307 1274 1239 1203 1177 1146 1119 1112 1140 1185 1244 1309 1346 1334 1260 1133 976 834 807 804 912 1001 1082 1131 1126 1043 890 690 552 544 626 719 778 798 799 798 817 848 872 874 857 815 757 695 644 614 613 632 663 689 694 663 599 517 476 481 503 522 517 509 494 528 573 628 677 718 750 780 806 826 829 816 782 729 659 572 497 459 525 620 711 782 808 780 731 674 615 596 560 567 545 566 528 482 404 356 344 366 376 454 567 699 827 946 1034 1090 1113 1110 1088 1037 939 788 596 379 165 -1 -1 -1 -1 -1 -1 -1 -1 -1
-1 -1 -1 -1 -1 -1 -1 -1 -1 -1 -1 75 216 342 452 538 591 611 593 557 535 541 594 685 796 892 950 955 903 803 690 608 568 562 571 609 682 784 883 970 1046 1109 1152 1184 1204 1219 1232 1245 1253 1257 1258 1260 1261 1262 1262 1248 1230 1203 1172 1148 1133 1126 1117 1138 1176 1226 1282 1326 1345 1311 1220 1082 901 736 676 774 880 980 1044 1076 1064 991 863 707 573 518 581 657 690 681 648 640 670 711 757 791 799 776 731 683 644 622 622 639 666 688 688 655 587 519 457 435 447 458 465 466 504 546 595 636 668 690 709 722 741 747 743 716 673 609 538 458 392 442 534 625 695 728 710 658 587 521 493 449 450 423 453 437 429 358 293 271 296 308 374 452 554 672 791 888 957 993 999 988 962 917 832 688 498 281 65 -1 -1 -1 -1 -1 -1 -1 -1 -1
-1 -1 -1 -1 -1 -1 -1 -1 -1 -1 -1 8 143 261 358 428 464 452 407 350 314 326 419 559 710 838 922 960 938 871 790 728 687 674 680 705 760 839 927 1007 1078 1139 1188 1220 1241 1253 1262 1262 1254 1237 1211 1183 1162 1158 1155 1164 1163 1155 1130 1113 1113 1114 1140 1173 1217 1266 1311 1340 1337 1290 1199 1066 912 744 661 751 875 956 1006 1022 1000 937 834 713 585 512 548 609 620 571 504 483 513 579 649 708 741 738 709 671 634 612 609 626 653 675 677 649 598 529 467 428 414 424 436 473 513 559 592 617 629 640 647 660 666 668 651 623 572 504 430 379 360 465 562 630 668 662 608 530 448 401 358 358 326 351 335 356 324 312 263 269 299 371 435 512 593 683 768 838 872 883 873 854 828 791 714 584 399 187 -1 -1 -1 -1 -1 -1 -1 -1 -1 -1
-1 -1 -1 -1 -1 -1 -1 -1 -1 -1 -1 -1 32 136 219 273 285 256 191 122 90 159 303 478 650 799 908 965 977 946 900 851 820 793 796 815 858 916 985 1048 1104 1154 1192 1219 1233 1240 1238 1227 1201 1160 1111 1055 1025 1019 1055 1088 1125 1132 1118 1100 1102 1129 1164 1208 1255 1296 1330 1340 1320 1262 1174 1067 941 804 683 746 838 918 956 957 933 874 789 690 590 505 525 569 578 510 407 347 381 463 555 633 682 696 680 645 604 575 568 590 621 648 659 644 602 545 486 440 422 421 448 484 522 550 568 573 572 573 584 589 595 582 566 529 480 404 350 321 424 507 584 623 622 581 505 406 339 286 281 253 275 258 281 263 292 283 328 357 404 452 512 570 632 692 745 775 779 756 732 705 683 647 586 473 303 100 -1 -1 -1 -1 -1 -1 -1 -1 -1 -1
-1 -1 -1 -1 -1 -1 -1 -1 -1 -1 -1 -1 -1 -1 52 92 92 39 -1 -1 -1 82 257 443 625 780 903 980 1011 1013 992 965 935 916 905 922 953 997 1044 1087 1121 1149 1170 1182 1188 1187 1178 1154 1109 1048 974 917 879 915 979 1059 1109 1130 1120 1109 1118 1152 1193 1240 1282 1317 1334 1325 1287 1220 1133 1043 951 841 740 680 779 860 885 881 848 798 727 648 566 516 498 556 564 503 393 293 302 376 477 563 620 646 638 605 552 509 505 532 570 611 633 632 603 554 501 466 447 449 468 495 515 525 522 515 509 510 516 523 512 503 470 429 374 326 294 395 474 552 592 594 557 491 400 313 245 234 211 232 215 245 232 254 281 354 409 460 499 535 570 606 644 677 699 696 662 617 567 536 513 494 445 353 204 25 -1 -1 -1 -1 -1 -1 -1 -1 -1 -1
-1 -1 -1 -1 -1 -1 -1 -1 -1 -1 -1 -1 -1 -1 -1 -1 -1 -1 -1 -1 -1 93 279 466 636 788 908 993 1042 1061 1061 1049 1034 1015 1011 1015 1039 1067 1094 1111 1119 1121 1118 1118 1115 1109 1095 1062 1006 927 844 786 815 888 980 1060 1118 1140 1138 1133 1148 1179 1221 1261 1299 1325 1328 1301 1246 1166 1071 984 909 832 722 646 713 785 802 783 748 702 648 581 530 487 525 561 572 521 423 318 263 319 412 497 559 587 585 548 486 426 420 449 507 564 604 617 598 557 519 488 473 472 481 491 495 487 471 455 449 451 454 442 428 392 364 330 267 284 383 459 536 578 588 554 483 404 314 243 216 201 227 220 244 242 284 321 373 430 489 533 562 578 590 602 617 629 628 596 534 454 382 333 327 318 293 225 108 -1 -1 -1 -1 -1 -1 -1 -1 -1 -1 -1
-1 -1 -1 -1 -1 -1 -1 -1 -1 -1 -1 -1 -1 -1 -1 -1 -1 -1 -1 -1 -1 176 355 526 681 813 923 1004 1058 1088 1101 1104 1100 1094 1089 1096 1107 1118 1121 1110 1086 1060 1041 1029 1027 1020 1003 971 909 825 747 745 815 914 1012 1086 1135 1161 1164 1168 1181 1209 1243 1276 1304 1320 1314 1279 1212 1121 1009 901 827 760 684 610 661 695 700 669 632 597 549 511 473 506 544 580 584 542 463 357 266 284 351 429 489 522 522 485 413 342 320 369 449 525 581 602 589 559 524 496 480 474 475 474 464 447 424 402 396 392 379 357 299 267 239 231 326 383 453 527 573 595 578 516 423 326 259 212 205 238 257 283 293 326 361 416 466 515 555 582 588 577 561 551 551 555 543 493 393 269 167 119 114 130 125 87 11 -1 -1 -1 -1 -1 -1 -1 -1 -1 -1 -1
-1 -1 -1 -1 -1 -1 -1 -1 -1 -1 -1 -1 -1 -1 -1 -1 -1 -1 -1 -1 136 296 463 612 741 850 936 1005 1055 1088 1110 1125 1134 1138 1142 1146 1150 1145 1126 1085 1028 977 941 930 924 928 917 884 826 757 713 759 843 951 1045 1118 1163 1185 1196 1201 1213 1232 1254 1275 1293 1301 1293 1259 1194 1101 986 865 770 702 656 665 607 622 586 552 520 491 467 441 471 510 557 585 587 555 487 391 305 247 293 352 412 452 458 424 347 267 249 322 412 499 559 584 579 551 516 484 464 456 451 444 430 413 392 368 335 314 290 237 191 121 172 312 397 474 524 567 597 601 566 491 388 295 236 223 242 274 308 338 370 399 447 495 545 582 609 612 588 536 486 458 458 472 470 409 274 101 -1 -1 -1 -1 -1 -1 -1 -1 -1 -1 -1 -1 -1 -1 -1 -1 -1 -1
-1 -1 -1 -1 -1 -1 -1 -1 -1 -1 -1 -1 -1 -1 -1 -1 -1 -1 43 168 306 443 579 700 799 878 941 988 1025 1057 1088 1113 1136 1151 1160 1165 1162 1146 1110 1048 962 883 839 822 829 840 835 809 758 707 724 789 885 983 1077 1147 1190 1212 1222 1227 1232 1239 1247 1254 1262 1268 1263 1239 1189 1110 1011 908 823 779 755 721 676 572 524 486 458 434 416 432 461 508 547 571 573 549 494 415 327 258 225 275 335 379 396 372 302 223 229 287 388 476 538 565 560 532 496 460 435 423 418 411 402 391 379 339 269 211 163 128 71 180 281 384 473 524 561 589 604 598 556 482 393 312 262 253 270 301 337 378 419 464 508 559 602 634 644 628 572 482 385 342 360 409 426 363 221 34 -1 -1 -1 -1 -1 -1 -1 -1 -1 -1 -1 -1 -1 -1 -1 -1 -1 -1
-1 -1 -1 -1 -1 -1 -1 -1 -1 -1 -1 -1 -1 -1 -1 -1 33 120 224 345 461 581 683 768 836 883 916 939 964 996 1036 1076 1108 1133 1148 1153 1146 1123 1078 1003 902 801 745 731 744 758 765 744 713 692 743 828 923 1019 1105 1171 1212 1233 1240 1240 1236 1228 1217 1212 1214 1220 1227 1218 1187 1131 1056 974 914 871 838 794 719 637 565 524 486 455 436 423 454 489 520 539 540 519 476 412 338 260 199 214 258 310 337 323 272 221 208 281 374 463 519 545 537 507 470 434 405 392 387 387 383 384 366 311 202 88 38 8 150 263 377 456 510 547 571 588 596 584 548 483 409 339 292 270 272 294 332 383 440 496 551 600 640 667 668 633 557 439 306 247 287 362 399 366 252 81 -1 -1 -1 -1 -1 -1 -1 -1 -1 -1 -1 -1 -1 -1 -1 -1 -1 -1
-1 -1 -1 -1 -1 -1 -1 -1 -1 -1 -1 14 71 108 130 161 213 288 387 491 594 680 753 805 833 848 850 856 872 917 971 1022 1064 1092 1108 1113 1106 1082 1034 956 855 745 680 667 676 694 701 694 674 707 774 865 962 1052 1129 1189 1226 1242 1244 1237 1222 1199 1171 1156 1150 1165 1183 1192 1181 1146 1091 1028 968 918 867 811 748 681 620 570 529 493 462 446 440 468 488 492 487 469 434 383 326 256 196 161 198 247 276 270 240 213 213 293 381 453 505 523 512 479 440 406 383 370 369 372 380 375 349 278 155 3 -1 55 204 340 428 487 521 541 553 563 566 559 530 481 418 353 296 252 234 242 287 355 431 502 568 623 666 686 680 637 548 425 294 205 237 313 375 375 306 173 4 -1 -1 -1 -1 -1 -1 -1 -1 -1 -1 -1 -1 -1 -1 -1 -1 -1
-1 -1 -1 -1 -1 -1 -1 -1 -1 -1 -1 22 116 188 245 295 356 434 518 606 684 745 781 794 786 767 750 746 785 847 914 971 1009 1033 1046 1051 1044 1024 979 909 818 729 656 628 634 648 661 657 683 729 809 897 993 1078 1148 1199 1228 1237 1233 1219 1195 1160 1118 1088 1086 1103 1133 1159 1168 1151 1110 1054 989 919 848 780 720 670 621 578 537 505 478 458 446 457 452 438 417 397 370 332 285 233 174 134 150 189 213 214 204 196 251 314 392 451 488 501 488 457 418 388 369 362 364 372 372 357 314 233 101 -1 -1 118 270 379 448 483 500 504 510 513 518 518 500 461 408 344 273 201 148 156 214 307 404 491 565 631 677 698 688 641 553 433 306 214 185 260 336 367 339 253 123 -1 -1 -1 -1 -1 -1 -1 -1 -1 -1 -1 -1 -1 -1 -1 -1 -1
-1 -1 -1 -1 -1 -1 -1 -1 -1 -1 -1 -1 100 207 299 376 452 532 613 684 740 768 765 737 693 648 624 660 728 807 872 917 943 959 965 971 967 948 918 860 792 720 661 622 617 631 641 676 710 769 840 924 1012 1094 1158 1203 1221 1221 1208 1188 1160 1124 1073 1036 1029 1048 1084 1123 1148 1146 1115 1058 981 889 789 709 656 615 582 550 521 497 480 465 467 457 430 379 334 309 293 262 226 185 151 122 125 142 167 174 180 230 282 345 399 446 472 479 467 441 411 382 367 365 370 372 359 319 253 149 52 -1 79 201 322 399 441 453 446 441 435 439 452 461 452 421 371 306 225 122 55 52 150 271 380 478 564 630 680 704 695 650 566 455 330 211 160 205 278 328 338 299 215 106 -1 -1 -1 -1 -1 -1 -1 -1 -1 -1 -1 -1 -1 -1 -1 -1
-1 -1 -1 -1 -1 -1 -1 -1 -1 -1 -1 -1 43 174 293 402 499 586 664 723 756 754 710 637 562 512 525 613 714 785 833 859 867 867 875 878 875 868 844 809 759 709 669 642 626 634 668 700 745 798 865 941 1019 1096 1161 1201 1214 1199 1172 1151 1127 1094 1055 1012 995 1011 1049 1093 1127 1136 1110 1050 960 844 723 627 578 551 532 517 502 492 486 492 489 470 414 335 255 225 212 198 164 149 140 146 153 158 158 175 222 268 320 363 404 432 449 453 445 427 404 385 374 374 378 371 338 264 152 55 -1 66 173 284 360 401 410 392 370 347 338 348 370 383 378 352 302 235 136 40 -1 26 141 260 374 476 565 635 684 707 700 659 583 475 343 223 140 151 202 263 303 308 268 191 95 -1 -1 -1 -1 -1 -1 -1 -1 -1 -1 -1 -1 -1 -1 -1
-1 -1 -1 -1 -1 -1 -1 -1 -1 -1 -1 -1 -1 114 252 383 503 603 679 731 745 714 628 512 417 393 499 615 708 767 787 786 775 771 772 780 782 779 772 746 714 687 668 656 654 666 685 716 751 797 861 938 1019 1093 1155 1196 1204 1183 1140 1110 1092 1074 1045 1012 988 990 1022 1069 1107 1122 1102 1041 942 821 683 579 526 509 506 504 507 513 521 527 526 489 412 304 208 168 161 162 173 176 189 201 211 218 222 245 277 316 347 372 390 406 415 419 415 406 394 384 380 382 382 366 315 206 56 -1 -1 123 249 332 375 381 352 306 263 232 230 247 269 281 278 247 196 120 44 -1 -1 71 177 284 387 482 569 639 687 711 705 668 597 493 364 233 145 100 127 185 249 289 287 240 164 71 -1 -1 -1 -1 -1 -1 -1 -1 -1 -1 -1 -1 -1 -1
-1 -1 -1 -1 -1 -1 -1 -1 -1 -1 -1 -1 -1 58 210 350 484 594 674 716 717 661 545 383 275 349 490 626 707 734 722 695 677 665 671 678 692 699 692 676 660 655 653 660 668 675 683 690 713 756 826 914 1004 1085 1148 1189 1199 1175 1127 1076 1062 1051 1035 1010 988 982 1007 1048 1088 1106 1093 1042 951 825 693 579 528 520 527 539 549 563 580 589 573 524 422 305 222 186 189 207 228 250 262 278 286 293 306 320 338 354 360 358 357 360 366 373 373 371 368 367 373 380 381 361 299 176 -1 -1 9 164 284 349 366 337 272 197 137 110 112 137 153 163 148 110 50 3 -1 9 75 165 247 332 417 503 577 642 689 710 706 673 609 512 394 265 150 87 77 125 192 251 277 262 204 121 20 -1 -1 -1 -1 -1 -1 -1 -1 -1 -1 -1 -1 -1
-1 -1 -1 -1 -1 -1 -1 -1 -1 -1 -1 -1 -1 41 192 340 470 580 656 692 676 603 467 293 194 299 488 625 696 698 653 603 572 567 573 595 611 619 613 606 608 613 634 648 655 652 636 628 632 691 780 882 984 1073 1142 1185 1198 1178 1133 1082 1037 1029 1015 999 983 979 1001 1033 1065 1086 1084 1047 970 863 738 631 585 578 594 613 627 641 659 664 640 571 465 359 290 265 267 291 319 336 352 362 370 376 382 388 388 382 362 328 304 297 304 315 321 325 326 336 352 367 372 353 295 172 11 -1 10 176 289 339 335 280 179 78 8 -1 -1 11 30 26 -1 -1 -1 -1 -1 84 188 264 332 398 465 532 596 647 685 705 703 675 620 538 429 302 182 94 65 86 144 208 251 255 223 152 61 -1 -1 -1 -1 -1 -1 -1 -1 -1 -1 -1 -1 -1
-1 -1 -1 -1 -1 -1 -1 -1 -1 -1 -1 -1 -1 76 219 355 478 577 641 659 624 535 392 225 150 287 484 627 685 670 606 531 487 483 503 525 539 541 545 551 558 587 613 626 620 595 561 530 565 643 751 861 972 1065 1142 1187 1200 1185 1145 1095 1048 1011 1000 986 980 986 998 1019 1043 1064 1071 1050 997 912 810 723 680 672 688 710 731 741 751 749 713 636 535 447 392 368 371 393 418 435 445 454 454 455 451 445 430 402 361 311 263 238 247 252 263 265 275 293 320 344 355 342 287 176 11 -1 8 162 266 305 289 217 99 -1 -1 -1 -1 -1 -1 -1 -1 -1 -1 -1 58 185 281 358 417 471 522 570 612 648 675 689 689 668 624 556 460 345 224 128 73 71 105 157 203 227 216 172 97 1 -1 -1 -1 -1 -1 -1 -1 -1 -1 -1 -1 -1
-1 -1 -1 -1 -1 -1 -1 -1 -1 -1 -1 -1 6 143 275 395 499 577 622 617 554 446 299 173 143 328 514 637 683 660 590 510 452 440 453 470 476 482 496 506 542 573 593 591 571 529 477 477 536 640 753 871 975 1075 1147 1190 1205 1191 1157 1115 1068 1026 1000 996 995 993 995 1004 1021 1041 1053 1047 1017 960 888 831 793 784 796 817 840 851 847 833 790 713 627 560 509 481 486 500 518 534 542 543 539 528 515 494 464 424 376 322 274 241 212 211 203 210 223 249 281 313 330 323 274 162 1 -1 -1 128 217 247 223 150 29 -1 -1 -1 -1 -1 -1 -1 -1 -1 -1 47 169 273 367 439 492 536 568 596 617 635 650 659 658 647 617 564 485 384 275 176 104 67 71 99 142 176 192 175 125 50 -1 -1 -1 -1 -1 -1 -1 -1 -1 -1 -1 -1
-1 -1 -1 -1 -1 -1 -1 -1 -1 -1 -1 -1 100 221 338 441 522 577 592 560 466 321 194 101 233 397 558 657 689 663 603 527 461 424 422 425 432 447 462 503 539 563 567 549 515 471 440 478 557 667 787 899 1007 1093 1160 1198 1207 1193 1164 1130 1090 1055 1032 1024 1017 1006 990 987 998 1014 1027 1032 1021 995 956 927 902 893 904 925 943 951 943 916 870 800 733 675 626 599 594 603 614 624 629 624 612 593 568 536 495 452 405 361 320 279 243 202 184 174 188 203 241 279 305 305 259 150 -1 -1 -1 69 139 158 132 68 -1 -1 -1 -1 -1 -1 -1 -1 -1 -1 70 165 269 365 444 510 558 585 598 599 597 598 603 606 613 609 593 557 496 416 322 230 147 83 39 41 68 112 147 159 136 86 17 -1 -1 -1 -1 -1 -1 -1 -1 -1 -1 -1
-1 -1 -1 -1 -1 -1 -1 -1 -1 -1 -1 86 189 298 396 478 533 556 540 478 360 195 60 141 300 472 599 671 693 670 617 548 485 436 407 404 411 428 469 505 534 545 531 498 463 429 451 509 605 713 828 943 1041 1122 1176 1203 1205 1186 1157 1127 1102 1080 1063 1051 1038 1017 993 973 977 984 997 1007 1013 1011 1006 998 992 988 1001 1019 1033 1033 1021 993 947 890 831 779 735 703 695 691 696 697 695 685 666 641 608 568 525 483 445 407 369 332 289 251 213 187 165 184 212 254 286 289 248 151 5 -1 -1 -1 27 32 8 -1 -1 -1 -1 -1 -1 -1 -1 -1 -1 79 177 270 359 445 519 573 610 623 611 582 553 536 533 545 553 560 553 530 488 428 354 273 188 107 36 -1 -1 39 94 128 127 98 45 -1 -1 -1 -1 -1 -1 -1 -1 -1 -1 -1
-1 -1 -1 -1 -1 -1 -1 -1 -1 -1 52 161 264 357 440 495 518 501 449 364 232 96 39 197 379 527 624 676 689 668 621 563 502 453 414 396 407 440 475 503 517 513 486 450 419 439 480 560 656 766 878 985 1077 1146 1191 1207 1198 1171 1136 1108 1096 1088 1081 1070 1055 1030 1002 978 958 960 966 981 995 1016 1034 1049 1055 1065 1075 1092 1098 1094 1077 1048 1009 959 911 863 819 786 767 759 749 743 733 718 696 667 631 589 546 506 470 435 402 368 332 292 250 206 174 162 195 240 273 278 246 162 32 -1 -1 -1 -1 -1 -1 -1 -1 -1 -1 -1 -1 -1 -1 -1 39 148 253 348 433 513 577 628 652 650 620 569 504 462 460 472 489 497 500 487 458 415 360 291 213 127 41 -1 -1 -1 30 77 95 83 45 -1 -1 -1 -1 -1 -1 -1 -1 -1 -1 -1
-1 -1 -1 -1 -1 -1 -1 -1 -1 -1 106 219 318 401 460 486 466 406 317 209 115 30 146 290 446 563 633 666 672 654 616 565 515 464 425 403 420 451 478 488 484 466 443 410 422 460 526 609 713 820 928 1025 1109 1168 1202 1208 1190 1157 1117 1082 1075 1078 1080 1075 1061 1038 1010 978 957 942 947 958 982 1013 1050 1079 1101 1115 1128 1135 1134 1124 1103 1077 1043 1003 961 918 875 838 809 786 767 751 735 719 697 668 634 595 552 513 474 438 406 377 346 307 261 213 172 156 187 233 267 275 248 185 90 -1 -1 -1 -1 -1 -1 -1 -1 -1 -1 -1 -1 -1 -1 -1 70 184 292 395 486 563 626 668 687 674 632 567 487 402 383 389 408 426 432 426 402 368 324 268 201 125 42 -1 -1 -1 -1 9 41 44 15 -1 -1 -1 -1 -1 -1 -1 -1 -1 -1 -1
-1 -1 -1 -1 -1 -1 -1 -1 -1 20 143 257 349 419 458 448 383 273 150 62 5 125 247 390 500 577 623 642 645 630 601 561 516 468 430 411 431 459 473 465 438 421 396 408 433 490 566 656 759 868 969 1061 1134 1186 1210 1209 1186 1149 1111 1076 1053 1060 1064 1066 1057 1038 1011 980 952 940 934 947 975 1015 1058 1098 1128 1146 1151 1147 1134 1115 1094 1069 1043 1014 981 941 901 857 814 775 742 716 699 683 664 639 612 578 541 501 460 417 381 355 328 292 244 196 163 152 186 230 263 273 258 215 155 82 9 -1 -1 -1 -1 -1 -1 -1 -1 -1 -1 -1 -1 -1 58 183 300 407 508 589 654 698 711 695 648 581 490 404 312 297 311 330 347 335 312 278 239 192 141 83 17 -1 -1 -1 -1 -1 -1 -1 -1 -1 -1 -1 -1 -1 -1 -1 -1 -1 -1 -1
-1 -1 -1 -1 -1 -1 -1 -1 -1 42 163 268 352 407 422 386 287 137 -1 -1 71 208 351 456 529 574 595 609 608 598 576 545 504 463 424 424 443 465 468 446 406 377 383 396 446 507 592 690 796 901 1004 1086 1154 1199 1217 1211 1187 1154 1117 1085 1061 1039 1046 1048 1045 1028 1004 973 951 935 938 950 979 1020 1068 1111 1144 1155 1148 1124 1093 1062 1038 1020 1004 988 967 937 898 850 794 733 683 644 625 608 594 577 558 537 509 475 434 388 340 311 286 255 215 167 146 157 184 229 261 275 267 245 209 167 117 69 17 -1 -1 -1 -1 -1 -1 -1 -1 -1 -1 -1 19 148 274 390 495 592 663 709 727 710 666 596 516 418 324 238 209 238 226 212 179 144 103 68 32 -1 -1 -1 -1 -1 -1 -1 -1 -1 -1 -1 -1 -1 -1 -1 -1 -1 -1 -1 -1 -1
-1 -1 -1 -1 -1 -1 -1 -1 -1 42 161 256 323 356 348 293 182 23 -1 -1 136 300 417 494 536 553 564 568 569 563 549 523 493 450 440 439 458 473 466 437 399 367 361 390 437 514 602 705 815 923 1016 1104 1166 1206 1219 1209 1185 1157 1128 1100 1070 1045 1026 1031 1028 1018 998 972 948 943 948 966 994 1035 1081 1124 1151 1154 1127 1075 1011 963 933 926 926 927 918 900 868 822 759 682 603 551 514 498 484 479 471 464 453 434 404 359 308 265 243 221 187 171 153 152 187 227 262 275 272 258 239 216 192 163 135 103 71 35 -1 -1 -1 -1 -1 -1 -1 -1 -1 97 222 345 464 567 653 709 733 723 681 619 537 447 362 283 244 182 152 116 82 41 -1 -1 -1 -1 -1 -1 -1 -1 -1 -1 -1 -1 -1 -1 -1 -1 -1 -1 -1 -1 -1 -1 -1 -1
-1 -1 -1 -1 -1 -1 -1 -1 -1 28 132 209 254 259 236 176 64 -1 -1 39 215 362 462 514 529 529 527 532 530 529 524 512 483 473 458 470 484 493 480 446 406 382 363 378 431 501 601 704 815 921 1025 1107 1172 1207 1214 1199 1174 1151 1127 1102 1076 1048 1028 1011 1013 1007 995 974 960 964 975 991 1020 1057 1099 1135 1155 1146 1102 1021 918 825 794 788 813 828 839 832 815 777 719 635 539 449 394 357 349 346 350 356 367 376 371 345 304 258 227 209 205 185 165 157 188 234 263 272 263 248 234 227 222 221 210 196 176 146 114 79 44 7 -1 -1 -1 -1 -1 35 165 290 415 530 623 693 728 729 696 637 560 482 409 359 319 282 232 192 147 96 26 -1 -1 -1 -1 -1 -1 -1 -1 -1 -1 -1 -1 -1 -1 -1 -1 -1 -1 -1 -1 -1 -1 -1
-1 -1 -1 -1 -1 -1 -1 -1 -1 -1 70 125 145 129 94 29 -1 -1 -1 122 285 412 492 524 522 507 501 501 500 504 508 508 505 498 500 508 523 527 512 479 446 411 389 386 422 500 586 698 808 922 1022 1112 1171 1202 1202 1180 1150 1125 1107 1089 1068 1048 1023 1008 998 1003 997 983 985 994 1007 1026 1049 1081 1116 1145 1157 1139 1083 990 872 741 644 656 661 700 722 735 731 711 671 605 509 396 299 237 216 202 200 220 257 302 328 333 318 293 268 251 229 201 174 165 202 242 266 262 238 214 202 203 221 238 250 252 248 234 214 189 158 125 90 53 2 -1 -1 1 104 237 361 478 582 658 708 724 704 654 585 513 456 420 399 373 340 299 251 188 101 -1 -1 -1 -1 -1 -1 -1 -1 -1 -1 -1 -1 -1 -1 -1 -1 -1 -1 -1 -1 -1 -1 -1
-1 -1 -1 -1 -1 -1 -1 -1 -1 -1 -1 9 4 -1 -1 -1 -1 -1 65 218 348 454 515 533 521 502 489 487 489 494 503 515 527 536 544 554 566 572 558 532 496 463 434 415 440 499 590 694 813 922 1028 1113 1173 1196 1189 1156 1116 1087 1071 1064 1052 1034 1018 1002 1004 1007 1009 1011 1013 1023 1038 1054 1075 1098 1126 1148 1155 1134 1082 999 883 755 635 520 536 544 578 602 614 622 608 570 500 406 304 204 149 120 100 94 154 204 263 305 328 332 322 298 257 209 171 184 220 256 266 246 203 162 149 166 195 225 251 271 285 292 293 282 264 240 214 181 143 87 38 -1 69 171 296 412 518 610 674 708 706 668 610 546 497 466 443 420 391 352 304 239 151 43 -1 -1 -1 -1 -1 -1 -1 -1 -1 -1 -1 -1 -1 -1 -1 -1 -1 -1 -1 -1 -1 -1
-1 -1 -1 -1 -1 -1 -1 -1 -1 -1 -1 -1 -1 -1 -1 -1 -1 -1 150 289 407 489 539 548 532 510 500 498 500 509 523 537 556 572 588 600 611 616 607 585 559 528 498 479 475 525 608 711 821 939 1040 1121 1173 1193 1177 1136 1086 1048 1037 1034 1028 1019 1006 1011 1015 1023 1030 1036 1040 1044 1053 1066 1082 1103 1125 1143 1145 1127 1084 1016 923 812 676 548 419 408 419 439 482 507 524 515 482 422 342 263 209 173 141 112 62 113 173 250 315 353 358 335 282 218 193 206 245 270 268 227 173 122 106 128 156 189 220 251 283 312 336 351 351 345 328 305 270 226 159 102 32 117 209 327 441 548 632 686 700 680 632 578 529 491 458 427 394 356 310 253 177 85 -1 -1 -1 -1 -1 -1 -1 -1 -1 -1 -1 -1 -1 -1 -1 -1 -1 -1 -1 -1 -1 -1
-1 -1 -1 -1 -1 -1 -1 -1 -1 -1 -1 -1 -1 -1 -1 -1 -1 25 188 337 447 526 566 574 557 540 529 529 533 542 558 575 593 610 628 643 651 652 648 635 615 594 571 549 547 573 649 746 852 959 1059 1133 1180 1191 1171 1127 1076 1036 1014 1011 1009 1007 1016 1022 1034 1045 1051 1055 1054 1050 1049 1055 1068 1089 1112 1127 1126 1107 1069 1013 943 854 744 604 470 334 280 316 331 378 408 427 426 401 359 315 280 249 216 161 101 30 90 185 282 348 375 362 312 263 240 249 274 291 275 231 170 129 111 96 117 141 168 200 241 288 338 383 413 424 426 413 386 345 292 211 136 52 128 233 364 485 588 659 691 685 649 596 542 488 441 401 363 326 288 245 190 120 68 47 50 61 64 47 16 -1 -1 -1 -1 -1 -1 -1 -1 -1 -1 -1 -1 -1 -1 -1
-1 -1 -1 -1 -1 -1 -1 -1 -1 -1 -1 -1 -1 -1 -1 -1 -1 3 197 351 472 552 595 606 595 581 573 573 580 591 605 621 637 649 662 672 676 675 670 662 652 641 628 618 614 643 704 794 891 990 1079 1149 1187 1196 1172 1130 1087 1047 1021 1007 1007 1020 1033 1046 1055 1064 1066 1059 1049 1034 1022 1024 1040 1067 1092 1104 1096 1068 1026 975 924 863 785 680 547 418 311 217 233 226 264 300 325 324 314 300 287 272 244 197 123 47 9 118 244 334 382 387 362 330 308 308 316 322 302 260 211 172 133 100 81 94 112 133 178 241 315 385 443 481 500 503 487 454 403 327 219 119 63 167 302 430 543 628 676 682 652 600 533 462 398 350 310 276 250 228 199 167 149 148 157 163 158 136 98 54 7 -1 -1 -1 -1 -1 -1 -1 -1 -1 -1 -1 -1 -1
-1 -1 -1 -1 -1 -1 -1 -1 -1 -1 -1 -1 -1 -1 -1 -1 -1 -1 160 342 475 566 617 637 636 627 623 624 632 647 659 670 680 683 683 683 679 674 668 663 658 654 652 654 668 698 759 842 935 1019 1099 1160 1197 1201 1179 1143 1105 1073 1047 1033 1035 1046 1060 1072 1079 1079 1069 1050 1023 993 977 980 1010 1046 1071 1080 1060 1013 952 896 853 825 785 722 630 520 402 304 189 152 137 181 184 191 203 215 226 220 208 182 125 36 -1 65 205 317 386 416 418 402 388 377 377 366 349 315 272 219 163 110 75 55 63 83 129 202 290 374 452 512 554 572 569 549 500 421 313 186 90 140 253 385 505 600 657 673 646 589 510 430 344 286 243 215 202 206 210 213 219 232 243 245 233 203 157 105 47 -1 -1 -1 -1 -1 -1 -1 -1 -1 -1 -1 -1 -1
-1 -1 -1 -1 -1 -1 -1 -1 -1 -1 -1 -1 -1 -1 -1 -1 -1 -1 122 303 456 560 623 656 668 670 671 675 685 699 710 716 713 704 689 673 659 650 641 636 633 632 636 653 686 734 802 884 967 1047 1117 1172 1202 1204 1183 1152 1122 1097 1078 1068 1070 1078 1088 1096 1098 1089 1068 1033 988 941 920 939 983 1027 1056 1059 1028 958 866 779 742 734 739 721 675 602 516 418 332 256 209 125 100 87 82 121 114 100 109 110 83 7 -1 28 174 301 391 444 466 469 463 455 442 431 411 383 335 266 191 122 68 46 44 71 118 186 273 366 452 529 586 622 635 622 578 500 390 264 163 131 229 355 480 578 642 658 630 569 486 387 294 226 185 158 165 183 217 247 271 293 302 299 277 236 179 114 42 -1 -1 -1 -1 -1 -1 -1 -1 -1 -1 -1 -1 -1
-1 -1 -1 -1 -1 -1 -1 -1 -1 -1 -1 -1 -1 -1 -1 -1 -1 -1 102 273 418 539 614 660 685 699 708 717 727 740 748 745 731 710 681 647 624 611 600 595 593 592 599 630 683 749 825 912 996 1070 1132 1179 1204 1201 1176 1147 1123 1105 1094 1090 1094 1101 1108 1112 1108 1094 1066 1023 965 900 874 905 964 1013 1042 1042 1004 920 800 676 599 610 651 681 683 652 600 537 471 408 329 258 191 160 138 63 33 7 -1 22 11 -1 -1 8 153 285 391 462 503 521 528 526 517 503 485 452 398 317 222 135 76 51 58 88 137 197 274 361 452 535 605 654 680 677 638 565 459 338 223 168 230 351 468 570 626 638 605 537 448 349 251 185 152 154 146 176 216 268 308 331 338 321 283 227 158 79 -1 -1 -1 -1 -1 -1 -1 -1 -1 -1 -1 -1 -1 -1
-1 -1 -1 -1 -1 -1 -1 -1 -1 -1 -1 -1 -1 -1 -1 -1 32 107 179 265 396 504 593 649 685 709 728 743 756 766 769 757 734 701 661 621 587 573 565 562 564 567 580 616 676 754 839 930 1014 1090 1146 1188 1202 1190 1154 1116 1093 1081 1079 1085 1094 1104 1112 1114 1108 1092 1062 1016 958 890 851 890 950 999 1028 1029 991 905 775 623 498 493 545 614 652 659 643 606 560 504 442 377 322 283 230 170 110 60 11 -1 -1 -1 -1 1 129 266 378 466 524 559 575 585 583 573 557 522 462 373 272 179 116 84 92 119 166 225 290 370 454 539 613 674 710 715 682 612 513 395 281 211 254 359 479 567 617 614 570 493 400 303 226 173 177 174 168 168 219 279 330 355 349 314 252 176 94 7 -1 -1 -1 -1 -1 -1 -1 -1 -1 -1 -1 -1 -1 -1
-1 -1 -1 -1 -1 -1 -1 -1 -1 -1 -1 -1 -1 -1 -1 47 152 230 290 347 395 488 564 626 668 701 728 750 767 775 772 754 720 679 635 593 564 546 549 566 580 586 599 632 691 768 861 948 1036 1104 1162 1194 1199 1173 1121 1061 1026 1020 1028 1042 1061 1079 1092 1098 1095 1081 1055 1016 959 891 848 881 935 982 1014 1020 989 911 792 643 508 408 456 515 584 623 634 620 587 542 491 437 391 350 307 258 206 148 70 -1 -1 -1 -1 -1 104 232 353 450 522 573 607 626 637 635 620 587 527 441 344 261 204 159 135 154 193 249 314 380 461 540 619 685 728 738 710 643 542 430 321 267 281 393 503 580 609 590 527 441 343 263 202 206 216 215 189 178 221 291 339 359 338 278 191 90 -1 -1 -1 -1 -1 -1 -1 -1 -1 -1 -1 -1 -1 -1 -1 -1
-1 -1 -1 -1 -1 -1 -1 -1 -1 -1 -1 -1 -1 -1 10 130 242 331 396 435 467 488 549 599 646 685 715 740 759 770 763 737 695 646 601 569 546 546 560 588 616 636 653 685 738 813 894 979 1052 1123 1170 1198 1196 1159 1091 1003 940 929 940 968 1000 1028 1049 1062 1067 1061 1044 1014 967 902 848 867 908 960 997 1009 987 928 826 700 559 449 354 412 475 546 581 584 560 523 478 432 389 351 315 277 234 180 111 13 -1 -1 -1 -1 55 189 309 415 498 563 614 654 674 684 675 646 594 521 442 375 315 263 220 196 223 266 325 391 461 542 619 688 735 749 722 652 555 437 347 297 355 445 537 594 602 560 482 386 291 219 223 246 264 251 212 188 231 296 343 347 305 223 111 -1 -1 -1 -1 -1 -1 -1 -1 -1 -1 -1 -1 -1 -1 -1 -1 -1
-1 -1 -1 -1 -1 -1 -1 -1 -1 -1 -1 -1 -1 -1 58 188 305 404 474 518 537 550 556 594 633 669 698 724 742 750 745 719 675 621 577 551 551 562 585 620 661 696 728 757 807 873 945 1011 1081 1135 1178 1198 1192 1154 1080 990 890 831 845 877 921 955 985 1007 1021 1027 1025 1008 974 920 866 837 877 932 973 992 984 940 866 758 635 503 387 293 368 432 488 500 487 448 400 352 312 280 254 229 198 159 98 8 -1 -1 -1 -1 15 130 253 359 452 537 608 662 700 719 721 702 661 606 547 491 435 380 322 280 260 286 326 382 452 529 612 685 735 753 726 656 550 444 352 364 422 507 575 605 588 527 434 333 252 218 255 296 307 282 230 200 239 302 336 320 254 149 21 -1 -1 -1 -1 -1 -1 -1 -1 -1 -1 -1 -1 -1 -1 -1 -1 -1
-1 -1 -1 -1 -1 -1 -1 -1 -1 -1 -1 -1 -1 -1 74 216 345 451 528 578 600 606 607 611 634 659 683 701 714 722 720 701 663 611 570 561 571 593 621 660 710 760 803 840 883 940 1000 1057 1103 1149 1178 1193 1187 1155 1094 1007 911 826 769 794 825 867 900 932 958 980 992 991 972 932 878 830 850 894 941 969 972 948 893 809 701 579 445 332 242 317 349 380 367 319 260 203 169 145 135 126 121 91 38 -1 -1 -1 -1 -1 9 95 196 300 407 506 592 662 711 743 755 748 723 684 641 594 546 492 435 375 334 312 325 360 420 506 592 672 730 754 731 665 566 455 421 432 495 561 606 608 564 483 385 288 230 257 303 342 346 305 246 210 252 309 324 284 194 66 -1 -1 -1 -1 -1 -1 -1 -1 -1 -1 -1 -1 -1 -1 -1 -1 -1 -1
-1 -1 -1 -1 -1 -1 -1 -1 -1 -1 -1 -1 -1 -1 50 208 356 476 564 617 646 651 645 639 640 650 661 669 678 684 691 688 661 623 596 594 610 637 672 715 769 824 876 918 958 1001 1049 1090 1122 1146 1167 1177 1176 1154 1108 1041 957 871 795 723 739 761 799 838 878 915 942 959 957 935 888 845 818 856 901 935 953 947 915 851 760 652 532 403 299 184 218 215 207 188 110 83 60 41 19 32 10 -1 -1 -1 -1 -1 -1 6 53 113 185 280 383 486 577 655 714 753 774 778 765 742 711 678 638 590 536 476 419 368 329 330 377 462 560 650 720 753 743 689 603 529 500 527 565 609 624 597 528 435 334 267 247 305 363 387 375 326 254 223 266 315 312 243 125 -1 -1 -1 -1 -1 -1 -1 -1 -1 -1 -1 -1 -1 -1 -1 -1 -1 -1 -1
-1 -1 -1 -1 -1 -1 -1 -1 -1 -1 -1 -1 -1 -1 -1 170 331 473 579 643 674 679 666 648 636 630 628 630 632 643 665 683 683 664 650 648 668 697 737 783 837 894 944 987 1021 1052 1080 1100 1112 1122 1131 1143 1149 1141 1113 1065 1002 928 843 762 668 664 685 726 778 831 879 914 934 928 900 853 812 823 856 894 924 941 928 884 814 722 616 497 357 231 108 95 102 109 158 146 136 108 69 -1 -1 -1 -1 -1 -1 -1 -1 65 132 177 237 309 398 492 578 652 712 753 776 784 782 770 753 730 702 667 621 568 503 426 355 316 339 416 517 621 699 745 750 718 661 611 600 612 639 650 632 571 474 371 300 264 316 372 418 428 397 331 268 239 290 326 302 206 61 -1 -1 -1 -1 -1 -1 -1 -1 -1 -1 -1 -1 -1 -1 -1 -1 -1 -1 -1
-1 -1 -1 -1 -1 -1 -1 -1 -1 -1 -1 -1 -1 -1 -1 96 278 440 568 652 689 693 674 643 616 598 593 591 590 613 654 696 716 723 717 726 743 771 811 862 912 965 1010 1046 1067 1080 1080 1073 1062 1060 1067 1083 1101 1108 1099 1074 1031 972 900 812 720 626 590 620 662 730 803 860 899 914 902 867 830 798 818 851 896 928 935 912 858 783 689 574 440 283 184 167 195 230 258 280 265 232 162 68 -1 -1 -1 -1 -1 -1 4 118 200 262 314 375 448 519 593 656 706 739 758 765 767 764 758 747 734 714 684 639 575 488 392 323 318 380 477 578 664 719 743 739 714 693 682 693 698 684 631 536 420 311 280 326 388 445 468 455 405 329 263 283 325 348 301 187 10 -1 -1 -1 -1 -1 41 80 71 17 -1 -1 -1 -1 -1 -1 -1 -1 -1 -1
-1 -1 -1 -1 -1 -1 -1 -1 -1 -1 -1 -1 -1 -1 -1 -1 193 379 533 640 692 700 677 636 593 565 559 559 583 617 666 717 759 779 796 804 830 860 899 941 991 1033 1070 1093 1097 1078 1043 1001 968 957 970 1000 1028 1052 1063 1058 1035 997 941 871 788 712 651 575 567 647 722 800 854 890 897 878 841 805 787 824 872 913 933 929 894 834 751 646 521 394 320 313 331 362 380 384 367 323 250 152 35 -1 5 37 -1 -1 35 156 260 336 396 448 501 558 611 658 690 710 719 723 724 724 724 728 731 733 722 691 632 545 437 349 319 357 435 526 606 671 712 738 748 751 754 756 749 709 630 513 387 331 346 404 468 506 504 465 393 326 284 331 379 381 318 180 6 -1 -1 -1 -1 50 130 161 140 75 -1 -1 -1 -1 -1 -1 -1 -1 -1 -1
-1 -1 -1 -1 -1 -1 -1 -1 -1 -1 -1 -1 -1 -1 -1 -1 89 298 479 610 683 701 678 633 583 547 536 552 589 634 686 745 799 841 865 892 915 953 987 1030 1068 1102 1124 1129 1108 1055 975 888 829 812 846 887 932 974 1004 1016 1016 997 961 913 856 804 740 676 625 572 653 720 804 860 884 878 848 805 778 804 855 898 927 935 918 874 807 719 613 508 451 432 447 462 474 465 439 382 301 193 94 36 79 90 32 -1 62 192 306 395 460 510 548 583 618 643 659 664 666 661 655 653 658 674 703 728 735 720 676 598 496 402 357 350 398 460 529 597 661 716 756 783 800 807 789 738 642 521 442 416 447 495 541 552 521 450 376 314 352 397 435 422 343 199 20 -1 -1 -1 -1 111 197 223 192 118 20 -1 -1 -1 -1 -1 -1 -1 -1 -1
-1 -1 -1 -1 -1 -1 -1 -1 -1 -1 -1 -1 -1 -1 -1 -1 2 209 414 568 667 702 686 635 585 545 535 557 592 648 708 772 840 895 937 968 1004 1035 1076 1112 1143 1164 1172 1157 1111 1030 910 773 666 661 698 758 816 874 919 955 971 971 953 925 892 857 816 766 696 624 565 653 754 824 865 871 848 803 777 796 841 883 915 933 929 903 854 786 698 610 556 541 543 550 547 532 488 419 321 222 127 144 162 150 72 13 87 224 345 437 504 547 572 587 597 605 605 604 596 586 570 556 571 605 660 704 728 731 706 647 563 484 428 395 377 402 451 521 605 680 744 791 824 838 825 773 687 595 538 534 550 588 603 581 514 419 335 360 415 474 494 460 365 226 44 -1 -1 -1 36 171 248 266 226 142 34 -1 -1 -1 -1 -1 -1 -1 -1 -1
-1 -1 -1 -1 -1 -1 -1 -1 -1 31 84 87 50 -1 -1 -1 -1 160 355 533 649 706 701 653 596 563 552 550 589 645 722 798 874 947 1001 1045 1084 1123 1158 1188 1209 1217 1209 1178 1118 1019 884 731 604 534 565 612 685 761 830 879 910 919 913 900 884 866 842 806 751 659 558 611 695 788 842 861 846 812 778 792 824 864 898 920 928 917 887 836 769 699 655 635 631 626 613 581 526 438 341 237 227 240 251 207 116 48 121 255 378 469 528 558 565 558 550 543 536 528 520 497 467 459 471 539 613 672 709 728 722 689 634 574 521 468 428 394 413 482 565 652 725 787 829 854 853 818 757 693 658 641 657 664 652 591 491 384 346 407 488 541 548 496 392 239 67 -1 -1 -1 89 224 293 293 237 141 20 -1 -1 -1 -1 -1 -1 -1 -1 -1
-1 -1 -1 -1 -1 -1 -1 -1 -1 96 183 226 215 176 121 81 75 176 356 517 649 722 731 689 634 600 566 558 570 634 718 814 903 986 1059 1116 1164 1204 1233 1255 1263 1256 1232 1189 1122 1030 913 782 654 551 463 486 559 658 740 798 829 842 841 840 838 833 825 805 763 688 606 543 641 741 811 845 845 820 791 775 803 840 873 900 915 915 899 867 821 773 740 718 705 691 665 623 555 466 360 322 327 335 316 258 158 92 165 294 410 493 541 550 530 502 478 465 455 452 432 401 378 355 410 491 577 640 685 711 722 716 692 654 609 560 510 470 451 485 557 634 709 772 821 855 868 859 827 795 764 751 742 733 684 595 478 397 407 472 552 597 592 528 408 247 60 -1 -1 -1 150 271 322 305 228 114 -1 -1 -1 -1 -1 -1 -1 -1 -1 -1
-1 -1 -1 -1 -1 -1 -1 -1 -1 141 267 342 372 359 331 297 277 311 417 560 680 758 777 748 701 655 607 571 573 615 705 813 923 1021 1109 1182 1236 1274 1299 1309 1304 1278 1238 1184 1117 1038 946 841 724 595 477 410 470 570 654 706 734 740 748 755 761 770 773 767 743 691 605 518 579 682 776 826 840 826 796 769 782 809 841 869 891 899 896 880 852 827 801 781 763 741 709 656 581 497 427 417 418 408 365 282 197 145 228 344 446 515 546 533 484 427 397 380 382 371 345 323 296 326 383 474 553 615 656 685 710 725 725 709 681 644 602 565 542 541 576 635 694 750 799 839 868 881 884 873 859 843 826 791 719 615 530 486 499 555 615 645 623 541 404 228 37 -1 -1 74 220 311 337 294 194 60 -1 -1 -1 -1 -1 -1 -1 -1 -1 -1
-1 -1 -1 -1 -1 -1 -1 -1 -1 182 330 442 503 527 526 509 499 509 559 650 745 815 845 833 794 738 678 632 600 625 698 812 939 1058 1158 1241 1298 1334 1352 1349 1324 1279 1219 1151 1083 1017 945 861 757 635 500 392 410 483 560 608 622 633 637 652 666 683 698 702 684 646 568 520 509 643 744 807 832 827 800 774 760 779 809 839 861 877 881 877 865 849 833 818 801 779 743 686 615 538 515 503 493 457 384 302 215 249 312 404 485 536 548 519 453 375 320 312 310 302 280 262 292 337 407 470 544 594 626 660 692 718 732 734 725 704 677 650 628 618 624 648 684 720 758 799 842 885 913 927 928 919 897 850 770 682 625 602 615 646 678 680 631 524 365 173 2 -1 23 170 281 339 327 255 135 -1 -1 -1 -1 -1 -1 -1 -1 -1 -1 -1
-1 -1 -1 -1 -1 -1 -1 -1 20 211 392 527 617 671 696 701 701 712 738 781 845 898 930 929 903 849 785 722 685 669 724 831 965 1098 1209 1294 1354 1385 1393 1371 1321 1249 1166 1086 1017 960 907 842 754 641 507 399 346 400 466 502 518 512 527 541 559 584 605 607 595 551 500 447 526 623 727 791 824 827 810 781 756 762 783 809 835 851 861 862 856 847 836 828 818 802 768 717 651 608 589 578 544 483 402 307 316 349 410 471 525 554 549 512 446 364 284 259 251 242 233 263 314 375 435 497 538 578 611 640 668 695 716 731 737 732 721 709 693 678 671 669 674 688 711 750 803 863 916 953 974 977 957 911 842 773 737 721 723 733 729 694 611 473 295 98 -1 -1 121 251 330 341 290 185 46 -1 -1 -1 -1 -1 -1 -1 -1 -1 -1 -1
-1 -1 -1 -1 -1 -1 -1 -1 52 255 443 602 717 791 838 864 879 891 907 931 966 1004 1029 1034 1013 973 913 850 796 779 795 884 1010 1140 1256 1345 1403 1429 1420 1375 1296 1192 1083 989 923 879 843 794 723 619 499 376 321 344 382 406 403 412 415 432 457 482 501 507 479 441 391 438 522 631 719 783 818 827 815 791 767 752 766 790 810 832 839 839 834 825 819 815 817 810 787 747 707 678 657 631 581 507 419 397 416 458 496 530 556 560 543 502 439 361 285 223 206 201 228 280 344 407 467 515 552 576 596 616 636 658 681 702 715 725 731 731 727 717 702 685 670 663 675 704 757 826 894 953 998 1016 1009 975 921 873 836 821 807 787 751 677 554 390 199 35 -1 83 227 322 355 318 220 86 -1 -1 -1 -1 -1 -1 -1 -1 -1 -1 -1 -1
-1 -1 -1 -1 -1 -1 -1 -1 104 306 498 668 802 895 956 1001 1026 1040 1054 1070 1090 1115 1134 1136 1126 1094 1049 995 942 908 926 977 1074 1194 1305 1393 1446 1463 1436 1369 1261 1129 992 884 821 794 773 745 686 598 485 404 346 312 321 316 320 319 323 342 363 390 403 399 373 332 355 425 533 634 717 775 811 822 816 799 777 763 763 780 806 816 820 815 804 795 788 795 803 806 795 778 758 737 715 676 614 538 503 503 521 546 567 576 570 551 519 475 416 343 275 217 197 202 237 289 358 423 483 530 561 577 582 590 599 616 637 655 673 689 704 716 725 727 717 695 671 654 652 676 719 784 858 937 1001 1042 1052 1035 999 956 919 883 848 799 727 619 470 279 112 -1 88 204 320 376 355 264 119 -1 -1 -1 -1 -1 -1 -1 -1 -1 -1 -1 -1 -1
-1 -1 -1 -1 -1 -1 -1 -1 154 364 557 730 874 984 1057 1109 1144 1160 1170 1182 1196 1213 1228 1236 1225 1209 1177 1137 1098 1064 1064 1103 1169 1261 1359 1437 1484 1488 1447 1357 1236 1088 943 822 753 724 719 704 665 594 530 464 408 359 304 276 263 254 263 274 301 318 326 315 294 289 339 434 536 631 707 764 799 815 815 806 795 785 782 794 806 810 801 792 777 765 762 771 782 790 794 794 790 779 756 717 659 610 592 600 611 620 619 604 568 519 473 426 368 309 251 241 238 243 243 290 343 412 474 528 561 575 574 567 568 575 589 606 620 638 653 671 691 711 718 707 683 663 651 657 689 745 822 909 994 1053 1084 1083 1057 1013 961 902 833 752 648 521 347 188 52 128 220 340 406 408 333 185 18 -1 -1 -1 -1 -1 -1 -1 -1 -1 -1 -1 -1 -1
-1 -1 -1 -1 -1 -1 -1 16 217 424 623 792 937 1052 1136 1192 1226 1244 1254 1260 1270 1283 1299 1309 1312 1301 1289 1269 1241 1217 1208 1233 1282 1347 1419 1481 1517 1509 1454 1358 1226 1085 939 818 738 702 688 686 665 637 594 548 493 432 367 299 248 235 242 263 280 296 294 280 265 286 343 432 527 612 681 737 776 801 811 815 814 812 812 813 816 808 788 774 758 745 743 750 761 772 784 796 804 801 786 755 716 685 673 676 681 675 656 618 558 482 414 360 314 266 272 278 295 293 287 273 318 374 444 509 553 572 570 558 544 544 554 565 577 587 601 614 645 684 715 724 710 691 671 662 671 710 791 888 979 1058 1103 1115 1091 1036 957 862 752 636 513 373 241 106 185 272 383 455 476 421 292 121 -1 -1 -1 -1 -1 -1 -1 -1 -1 -1 -1 -1 -1 -1
-1 -1 -1 -1 -1 -1 -1 90 289 490 684 853 988 1101 1183 1237 1269 1283 1287 1289 1293 1306 1326 1346 1362 1374 1374 1372 1367 1352 1344 1358 1393 1438 1487 1530 1550 1528 1462 1356 1225 1072 930 818 743 700 682 688 694 687 665 626 574 510 434 347 282 268 287 306 320 332 329 314 297 293 345 415 495 568 630 686 736 772 801 819 830 836 836 836 828 813 788 762 747 738 733 737 746 758 774 790 802 808 802 785 766 746 734 732 730 714 680 624 551 463 369 300 260 272 298 326 343 347 323 295 281 333 412 483 540 568 570 555 541 540 542 548 555 563 568 583 620 671 716 746 751 736 716 693 682 701 766 866 971 1057 1117 1133 1103 1026 902 754 595 451 332 240 149 236 330 449 527 561 526 426 269 91 12 -1 -1 -1 -1 -1 -1 -1 -1 -1 -1 -1 -1 -1
