-1 -1 -1 -1 -1 -1 -1 -1 -1 -1 -1 -1 -1 -1 111 220 311 381 434 471 503 533 565 593 620 639 650 655 651 640 625 602 577 546 515 487 470 470 484 503 526 545 557 558 550 533 512 490 475 470 461 454 449 447 448 468 494 530 576 633 696 758 812 860 895 925 946 959 962 952 928 889 843 794 745 704 676 680 701 728 758 787 813 838 866 895 932 976 1028 1084 1139 1196 1243 1285 1313 1325 1319 1292 1255 1209 1172 1138 1139 1143 1184 1232 1279 1317 1348 1366 1401 1429 1459 1475 1482 1487 1497 1518 1539 1557 1569 1579 1580 1578 1579 1577 1576 1562 1548 1534 1521 1505 1486 1468 1447 1429 1410 1397 1379 1352 1312 1257 1197 1123 1040 951 855 796 819 895 988 1051 1092 1113 1136 1164 1211 1260 1302 1337 1358 1362 1351 1322 1272 1203 1113 1001 868 716 547 370 186 1 -1 -1 -1 -1 -1 -1
-1 -1 -1 -1 -1 -1 -1 -1 -1 -1 -1 -1 -1 -1 64 178 280 365 434 487 526 562 594 621 642 655 660 656 646 630 612 592 573 548 521 497 483 482 494 511 528 541 547 542 525 502 477 455 445 437 435 429 431 439 460 490 526 567 612 662 717 767 809 843 867 888 904 920 930 932 921 897 862 818 772 732 709 709 722 746 771 794 813 830 847 871 905 956 1013 1072 1126 1174 1215 1242 1255 1250 1222 1180 1130 1081 1033 1016 1001 1032 1080 1131 1177 1208 1228 1264 1295 1331 1351 1364 1361 1370 1383 1409 1433 1453 1473 1480 1478 1475 1478 1482 1479 1467 1451 1435 1420 1399 1377 1353 1330 1309 1302 1292 1280 1253 1207 1146 1072 988 893 793 717 708 773 866 940 988 1004 1012 1018 1061 1114 1171 1222 1264 1293 1307 1307 1288 1249 1190 1112 1012 890 752 593 425 244 58 -1 -1 -1 -1 -1 -1
-1 -1 -1 -1 -1 -1 -1 -1 -1 -1 -1 -1 -1 -1 9 130 236 332 415 482 535 577 612 637 655 662 659 647 631 611 592 576 563 546 526 506 495 494 501 511 521 528 530 524 505 480 454 435 423 422 419 428 441 459 486 520 558 600 641 684 724 761 788 806 820 831 845 862 881 898 904 896 872 836 798 764 745 736 742 756 772 784 790 793 799 816 856 914 979 1042 1096 1139 1169 1185 1181 1155 1117 1059 1001 946 918 881 895 928 984 1033 1064 1089 1121 1157 1195 1224 1241 1238 1246 1244 1269 1292 1323 1350 1362 1368 1362 1360 1371 1376 1374 1359 1342 1324 1305 1277 1247 1219 1192 1181 1175 1183 1177 1149 1100 1029 944 854 757 672 644 688 769 847 895 913 906 886 906 951 1015 1079 1135 1183 1220 1244 1252 1241 1209 1157 1085 993 885 755 613 453 281 97 -1 -1 -1 -1 -1 -1
-1 -1 -1 -1 -1 -1 -1 -1 -1 -1 -1 -1 -1 -1 -1 73 187 289 381 462 527 579 617 645 659 661 651 631 607 585 568 555 548 540 528 514 504 499 499 500 503 506 507 501 487 468 447 429 421 418 426 439 462 488 519 551 586 623 658 689 716 734 744 749 748 753 763 784 818 853 877 885 874 850 819 794 772 758 754 755 757 755 744 731 727 747 798 866 938 1004 1056 1091 1109 1111 1093 1056 998 937 874 833 792 794 797 851 901 937 958 988 1022 1060 1092 1115 1116 1124 1113 1130 1148 1187 1219 1237 1247 1245 1236 1247 1258 1264 1259 1244 1223 1202 1175 1141 1103 1066 1046 1032 1055 1076 1079 1053 994 908 818 731 655 611 632 699 769 815 832 818 783 766 780 837 909 981 1046 1100 1144 1174 1188 1182 1157 1110 1041 954 850 734 599 452 288 113 -1 -1 -1 -1 -1 -1
-1 -1 -1 -1 -1 -1 -1 -1 -1 -1 -1 -1 -1 -1 -1 20 132 241 340 430 507 566 612 642 657 654 640 613 583 557 541 534 533 531 526 517 506 494 484 475 470 469 472 471 464 453 439 428 424 427 437 456 481 512 543 573 602 631 655 672 682 683 677 665 654 644 654 692 745 800 843 868 869 855 833 809 786 767 753 738 722 702 677 652 647 683 749 827 902 966 1011 1035 1041 1029 998 947 887 819 767 722 716 709 753 796 834 849 872 898 934 967 990 993 1001 989 1000 1003 1047 1084 1110 1122 1123 1111 1122 1130 1141 1145 1137 1119 1100 1073 1037 992 947 910 884 905 938 979 996 971 902 803 709 631 585 593 640 702 750 765 746 703 661 630 655 718 807 893 965 1020 1064 1097 1115 1116 1095 1053 987 900 798 682 557 416 265 96 -1 -1 -1 -1 -1 -1
-1 -1 -1 -1 -1 -1 -1 -1 -1 -1 -1 -1 -1 -1 -1 -1 86 196 299 393 475 543 594 631 648 645 626 598 566 536 520 516 517 522 522 515 499 476 450 428 414 415 419 426 426 421 418 415 420 430 449 469 495 523 552 578 601 618 629 632 621 604 582 555 526 513 531 592 673 748 809 846 858 851 833 809 784 760 735 706 669 632 593 572 584 643 724 802 876 932 967 979 972 945 900 845 784 726 673 656 652 685 719 752 770 789 796 822 851 878 879 882 866 873 868 914 954 982 999 1004 988 996 995 1013 1019 1023 1010 995 976 942 894 841 791 750 743 776 838 896 924 905 833 730 633 570 552 579 634 686 713 699 651 588 528 515 543 633 733 824 893 946 987 1018 1038 1043 1028 989 924 837 731 614 488 356 209 51 -1 -1 -1 -1 -1 -1
-1 -1 -1 -1 -1 -1 -1 -1 -1 -1 -1 -1 -1 -1 -1 -1 45 158 261 356 441 514 573 614 635 634 617 587 555 528 510 502 509 516 519 512 492 456 405 357 336 332 347 358 365 371 373 381 398 423 447 471 495 520 542 560 575 581 580 564 536 499 459 417 377 364 420 515 618 709 779 822 839 836 817 791 762 733 702 661 608 551 515 510 565 640 718 796 857 904 924 926 905 866 807 752 703 659 622 611 638 667 696 711 723 725 739 752 775 780 776 750 750 740 793 833 861 879 883 873 877 866 882 885 900 897 890 876 851 811 757 700 648 613 618 669 751 826 869 857 790 692 602 550 541 570 617 656 662 632 564 474 423 420 493 587 684 767 829 875 909 937 958 966 957 921 855 766 656 533 403 272 132 -1 -1 -1 -1 -1 -1 -1
-1 -1 -1 -1 -1 -1 -1 -1 -1 -1 -1 -1 -1 -1 -1 -1 14 124 230 323 410 485 550 596 620 623 606 579 550 524 505 497 503 513 518 511 486 441 373 292 230 225 237 264 286 300 308 329 362 398 428 454 477 496 511 521 527 523 507 477 428 373 314 256 223 245 350 476 588 683 755 799 817 811 788 756 719 688 652 608 549 488 461 497 574 657 732 793 845 875 887 878 847 796 734 678 645 617 597 605 630 656 673 679 675 676 676 690 694 685 650 633 615 671 715 752 769 767 759 764 748 759 753 772 775 782 775 761 731 691 638 578 526 506 523 603 704 787 830 823 767 682 601 551 539 562 599 623 619 575 497 397 351 389 476 564 643 710 762 799 827 856 878 890 881 846 781 686 574 443 308 176 38 -1 -1 -1 -1 -1 -1 -1
-1 -1 -1 -1 -1 -1 -1 -1 -1 -1 -1 -1 -1 -1 -1 -1 -1 94 198 294 381 462 529 578 604 609 596 572 545 523 506 499 506 518 523 516 489 438 361 264 157 95 109 148 187 206 230 263 314 360 393 418 438 451 461 463 461 449 420 373 307 230 154 102 91 188 322 459 576 668 736 776 789 779 750 705 663 624 590 549 498 454 456 521 601 678 743 792 825 845 849 833 796 742 680 631 606 596 591 606 630 652 661 651 637 620 614 618 605 565 530 498 551 598 646 669 668 652 651 638 648 633 647 649 667 669 669 653 626 589 538 476 437 425 493 588 686 765 806 800 753 679 608 557 541 553 580 598 588 541 461 380 334 386 465 540 600 648 687 719 748 778 801 808 800 763 697 602 483 351 212 77 -1 -1 -1 -1 -1 -1 -1 -1
-1 -1 -1 -1 -1 -1 -1 -1 -1 -1 -1 -1 -1 -1 -1 -1 -1 69 170 267 356 438 511 560 590 597 586 565 541 521 507 504 517 528 533 525 497 447 373 267 144 18 -1 26 71 101 129 191 254 305 341 364 378 388 391 392 384 364 325 260 173 77 9 -1 57 181 328 458 575 662 720 752 758 741 702 648 592 549 519 488 462 449 495 561 633 697 746 779 799 809 809 791 753 702 649 607 590 587 601 617 638 654 656 642 608 572 564 533 492 446 400 430 483 540 575 581 566 549 531 536 531 539 531 551 557 571 568 561 544 504 449 404 371 417 495 587 679 750 789 784 742 680 614 566 543 548 566 579 570 530 467 386 339 377 443 496 540 571 602 637 674 706 721 725 708 668 603 508 391 256 119 -1 -1 -1 -1 -1 -1 -1 -1 -1
-1 -1 -1 -1 -1 -1 -1 -1 -1 -1 -1 -1 -1 -1 -1 -1 -1 43 143 238 334 420 491 546 576 585 575 556 536 519 510 521 533 544 548 538 511 461 386 283 149 25 -1 -1 -1 -1 40 106 177 233 270 293 303 307 311 307 299 274 228 147 33 -1 -1 -1 77 212 346 473 577 653 704 725 722 696 650 587 522 476 451 443 440 480 537 603 662 706 735 749 760 766 764 750 720 678 635 606 590 600 615 633 648 658 657 642 620 590 525 475 420 366 343 377 429 479 500 494 470 444 429 433 440 435 445 448 467 473 485 488 477 449 390 346 369 428 505 591 673 740 776 775 739 682 621 572 546 542 554 567 564 537 483 412 345 361 398 436 459 487 521 565 607 635 645 634 607 562 493 402 287 161 24 -1 -1 -1 -1 -1 -1 -1 -1 -1
-1 -1 -1 -1 -1 -1 -1 -1 -1 -1 -1 -1 -1 -1 -1 -1 -1 17 116 216 313 403 479 531 565 574 565 548 528 515 522 534 550 560 563 552 523 472 396 292 177 43 -1 -1 -1 -1 -1 7 84 141 183 206 214 217 218 220 210 186 136 45 -1 -1 -1 -1 117 251 375 487 578 645 682 693 682 648 597 530 462 418 407 417 463 515 578 637 679 701 706 703 704 710 713 708 692 668 638 613 608 614 632 647 657 661 659 652 640 613 578 525 462 396 355 338 384 411 421 405 383 358 357 351 358 363 362 376 376 393 414 429 435 404 371 339 380 445 517 591 665 727 764 767 739 686 628 577 542 530 538 555 561 543 500 436 375 329 346 359 384 410 457 511 557 578 569 540 498 439 362 274 173 57 -1 -1 -1 -1 -1 -1 -1 -1 -1 -1
-1 -1 -1 -1 -1 -1 -1 -1 -1 -1 -1 -1 -1 -1 -1 -1 -1 -1 85 188 290 385 464 521 555 567 562 545 525 515 527 547 564 575 577 564 532 479 403 312 200 92 -1 -1 -1 -1 -1 -1 -1 35 78 105 114 117 129 130 121 102 50 -1 -1 -1 -1 20 160 287 402 501 581 633 656 653 633 595 544 482 421 389 393 434 493 557 616 660 685 680 656 635 629 637 650 662 666 659 644 630 626 635 644 656 661 662 661 658 654 648 631 596 538 470 400 360 327 346 341 328 308 309 299 304 304 305 310 305 319 331 362 390 389 377 344 373 408 465 527 593 659 716 753 761 739 693 633 575 529 508 519 542 554 545 509 455 392 339 294 301 321 370 424 482 522 530 502 445 378 297 212 125 33 -1 -1 -1 -1 -1 -1 -1 -1 -1 -1 -1
-1 -1 -1 -1 -1 -1 -1 -1 -1 -1 -1 -1 -1 -1 -1 -1 -1 -1 48 154 262 360 444 507 546 563 561 546 527 518 532 554 575 588 589 574 541 488 416 327 239 148 86 37 -1 -1 -1 -1 -1 -1 -1 -1 6 25 35 37 37 13 -1 -1 -1 -1 -1 71 207 328 433 520 584 620 625 605 575 538 494 443 402 390 414 463 531 595 647 679 680 649 592 545 531 542 574 607 633 646 647 644 644 650 656 660 661 659 657 658 662 667 664 644 602 537 462 385 335 296 286 269 269 270 278 277 286 284 273 275 274 302 331 346 355 338 368 399 443 489 538 595 653 704 740 753 737 694 634 567 509 479 492 521 542 540 512 463 404 341 293 268 303 355 415 466 498 495 447 363 259 149 48 -1 -1 -1 -1 -1 -1 -1 -1 -1 -1 -1 -1 -1
-1 -1 -1 -1 -1 -1 -1 -1 -1 -1 -1 -1 -1 -1 -1 -1 -1 -1 1 113 226 329 419 487 534 557 560 548 531 521 534 558 582 597 599 584 550 497 428 353 277 219 171 128 77 10 -1 -1 -1 -1 -1 -1 -1 -1 -1 -1 -1 -1 -1 -1 -1 -1 -1 130 258 370 463 536 582 598 583 548 510 476 445 416 402 414 452 507 568 628 671 687 672 618 530 446 408 430 482 542 592 626 643 652 656 659 661 661 656 651 645 649 660 676 685 679 651 597 521 444 376 323 280 259 256 259 273 293 301 296 285 263 260 277 291 312 317 358 396 434 468 506 548 594 643 691 727 744 732 690 627 553 484 446 461 496 524 528 508 466 409 349 294 268 297 355 410 456 479 468 410 305 175 36 -1 -1 -1 -1 -1 -1 -1 -1 -1 -1 -1 -1 -1 -1
-1 -1 -1 -1 -1 -1 -1 -1 -1 -1 -1 -1 -1 -1 -1 -1 -1 -1 -1 60 179 288 383 463 518 549 558 550 534 524 538 562 587 603 607 592 559 508 444 378 320 275 232 187 128 52 -1 -1 -1 -1 -1 -1 -1 -1 -1 -1 -1 -1 -1 -1 -1 -1 55 186 306 409 492 549 576 569 533 483 441 416 400 398 416 451 498 554 607 653 684 688 661 595 492 366 296 313 381 467 547 599 632 651 660 663 661 656 645 633 626 631 652 678 698 704 690 648 583 513 449 391 340 292 267 285 312 333 340 334 317 295 272 258 268 292 340 386 426 460 486 514 548 589 632 678 717 735 725 686 620 539 458 410 425 465 498 511 498 461 411 353 297 269 299 351 402 441 459 443 381 277 141 -1 -1 -1 -1 -1 -1 -1 -1 -1 -1 -1 -1 -1 -1 -1
-1 -1 -1 -1 -1 -1 -1 -1 -1 -1 -1 -1 -1 -1 -1 -1 -1 -1 -1 -1 113 233 341 430 497 539 556 554 542 532 543 566 592 609 614 599 566 515 457 400 348 302 256 204 138 54 -1 -1 -1 -1 -1 -1 -1 -1 -1 -1 -1 -1 -1 -1 -1 -1 116 239 351 445 515 559 567 538 479 415 378 362 362 390 434 486 540 589 634 668 686 681 648 581 475 351 232 212 291 407 500 569 615 642 654 658 656 647 631 611 599 614 646 677 707 723 719 691 641 583 523 462 400 337 306 331 372 391 392 378 358 328 292 264 282 322 371 415 450 474 493 512 536 573 620 668 707 729 722 684 618 532 442 381 388 426 466 485 480 451 405 350 298 268 292 344 388 421 433 413 354 261 142 8 -1 -1 -1 -1 -1 -1 -1 -1 -1 -1 -1 -1 -1 -1
-1 -1 -1 -1 -1 -1 -1 -1 -1 -1 -1 -1 -1 -1 -1 -1 -1 -1 -1 -1 34 166 290 394 471 524 553 559 552 547 551 573 598 617 620 605 570 522 466 407 347 290 235 175 102 15 -1 -1 -1 -1 -1 -1 -1 -1 -1 -1 -1 -1 -1 -1 -1 71 182 292 395 479 539 567 556 510 433 362 325 320 346 392 451 508 562 606 641 665 674 665 633 569 477 352 229 161 236 352 459 538 593 627 643 647 642 631 611 592 584 605 640 681 714 737 741 723 687 637 578 508 436 380 353 399 436 450 442 420 389 353 309 283 306 356 400 438 464 478 485 494 515 554 604 658 703 727 722 687 619 533 439 373 352 388 428 452 451 428 387 340 291 262 285 329 371 395 398 372 315 234 136 23 -1 -1 -1 -1 -1 -1 -1 -1 -1 -1 -1 -1 -1 -1
-1 -1 -1 -1 -1 -1 -1 -1 -1 -1 -1 -1 -1 -1 -1 -1 -1 -1 -1 -1 -1 90 225 342 433 500 542 561 563 560 570 590 613 627 628 610 574 523 461 389 311 236 168 98 25 -1 -1 -1 -1 -1 -1 -1 -1 -1 -1 -1 -1 -1 -1 -1 51 147 250 348 438 512 560 575 554 495 412 331 293 299 338 395 455 515 564 601 628 645 648 638 609 557 473 362 228 142 192 305 415 504 566 606 626 632 625 611 591 575 581 605 644 686 724 748 756 743 713 666 601 521 450 398 433 468 495 497 478 445 407 362 327 306 340 383 425 453 468 472 467 469 491 533 591 648 698 726 726 693 627 539 448 373 335 354 389 412 414 395 360 320 277 253 273 314 349 363 355 315 252 176 92 0 -1 -1 -1 -1 -1 -1 -1 -1 -1 -1 -1 -1 -1 -1
-1 -1 -1 -1 -1 -1 -1 -1 -1 -1 -1 -1 -1 -1 -1 -1 -1 -1 -1 -1 -1 11 147 272 377 463 522 557 572 581 593 613 631 641 635 612 570 510 432 341 243 146 55 -1 -1 -1 -1 -1 -1 -1 -1 -1 -1 -1 -1 -1 -1 -1 -1 52 140 226 312 401 479 542 581 588 561 500 418 336 281 287 326 383 444 499 543 574 596 607 610 601 578 531 458 356 233 128 155 253 371 470 540 587 610 615 607 590 574 567 582 611 650 691 729 754 762 750 719 668 599 513 441 456 493 528 536 521 491 450 402 364 330 354 382 416 444 461 466 459 446 444 469 518 578 641 694 727 731 701 639 554 462 376 326 327 348 368 370 354 326 292 261 243 266 300 328 332 304 244 159 78 4 -1 -1 -1 -1 -1 -1 -1 -1 -1 -1 -1 -1 -1 -1 -1
-1 -1 -1 -1 -1 -1 -1 -1 -1 -1 -1 -1 -1 -1 -1 -1 -1 -1 -1 -1 -1 -1 59 195 316 417 494 548 580 602 619 635 650 653 638 605 553 477 379 263 143 29 -1 -1 -1 -1 -1 -1 -1 -1 -1 -1 -1 -1 -1 -1 -1 -1 36 121 204 288 366 442 512 567 601 605 576 519 441 358 295 268 301 356 411 460 500 528 545 557 558 556 536 494 424 332 225 138 111 209 338 442 524 573 596 600 590 575 562 567 584 617 658 699 734 759 764 747 708 653 578 508 469 504 548 563 552 519 476 430 391 355 376 400 430 449 463 465 459 443 429 427 456 505 568 632 690 727 736 711 653 572 477 386 324 302 312 325 327 311 288 263 241 244 264 295 314 306 259 175 64 -1 -1 -1 -1 -1 -1 -1 -1 -1 -1 -1 -1 -1 -1 -1 -1 -1
-1 -1 -1 -1 -1 -1 -1 -1 -1 -1 -1 -1 -1 -1 -1 -1 -1 -1 -1 -1 -1 -1 -1 117 251 368 462 532 583 618 641 659 666 661 634 586 518 425 309 168 28 -1 -1 -1 -1 -1 -1 -1 -1 -1 -1 -1 -1 -1 -1 -1 -1 3 80 155 242 321 401 472 536 586 617 621 596 542 471 393 320 263 273 305 354 397 435 464 484 493 502 502 484 443 374 286 189 115 95 194 318 432 513 565 588 589 578 562 560 569 591 625 665 707 742 763 763 737 691 628 569 514 532 558 585 581 546 492 441 405 373 399 424 453 469 477 474 463 446 429 413 423 452 497 559 627 686 728 743 723 673 595 496 399 330 294 290 295 293 281 261 248 249 258 278 301 315 299 242 144 27 -1 -1 -1 -1 -1 -1 -1 -1 -1 -1 -1 -1 -1 -1 -1 -1 -1
-1 -1 -1 -1 -1 -1 -1 -1 -1 -1 -1 -1 -1 -1 -1 -1 -1 -1 -1 -1 -1 -1 -1 41 188 320 426 514 579 627 659 677 680 664 623 554 466 359 224 91 -1 -1 -1 -1 -1 -1 -1 -1 -1 -1 -1 -1 -1 -1 -1 -1 -1 8 80 169 247 338 414 489 551 601 631 636 614 567 503 433 359 293 233 251 275 316 351 383 405 425 437 439 422 380 309 216 132 69 113 201 320 423 507 559 584 586 573 564 563 575 600 635 678 719 753 770 763 731 678 624 568 570 587 611 613 587 532 469 415 394 421 448 480 496 502 493 476 454 434 415 417 423 452 500 559 623 685 731 751 739 696 621 526 425 344 305 296 293 284 275 272 272 276 291 308 326 335 316 262 176 78 -1 -1 -1 -1 -1 -1 -1 -1 -1 -1 -1 -1 -1 -1 -1 -1 -1
-1 -1 -1 -1 -1 -1 -1 -1 -1 -1 -1 -1 -1 -1 -1 12 21 12 -1 -1 -1 -1 -1 -1 133 275 395 493 573 632 670 691 689 661 604 517 405 278 157 39 11 4 -1 -1 -1 -1 -1 -1 -1 -1 -1 -1 -1 -1 -1 -1 -1 -1 62 149 248 335 422 495 560 610 641 648 630 590 534 470 403 327 260 188 200 220 256 290 324 352 367 372 356 312 238 141 54 63 122 219 324 423 501 558 587 594 585 581 583 596 618 654 695 737 768 781 769 731 684 631 622 624 644 650 633 588 529 472 448 461 480 510 528 533 522 499 469 441 422 427 431 445 468 511 570 632 691 738 763 758 722 654 566 468 386 347 334 328 321 314 315 321 330 341 358 371 375 359 315 254 189 125 70 18 -1 -1 -1 -1 -1 -1 -1 -1 -1 -1 -1 -1 -1 -1
-1 -1 -1 -1 -1 -1 -1 -1 -1 -1 -1 -1 10 46 78 104 119 114 93 54 2 -1 -1 -1 102 240 368 479 566 632 678 700 695 659 587 483 351 223 119 112 111 107 78 12 -1 -1 -1 -1 -1 -1 -1 -1 -1 -1 -1 -1 -1 -1 24 134 230 332 417 497 562 615 647 655 641 606 558 502 438 371 292 215 135 140 166 206 239 272 294 299 287 242 167 76 15 41 128 227 325 422 502 560 597 610 611 611 618 630 652 683 720 760 789 799 784 749 702 683 677 688 691 685 651 604 552 524 525 538 554 565 569 558 532 497 458 428 431 449 467 481 504 540 591 651 708 752 779 780 751 694 615 528 459 416 400 395 390 384 383 390 400 408 421 431 434 419 389 348 302 254 200 149 94 45 -1 -1 -1 -1 -1 -1 -1 -1 -1 -1 -1 -1
-1 -1 -1 -1 -1 -1 -1 -1 -1 -1 -1 11 75 122 159 191 209 215 204 180 145 99 62 45 109 229 350 465 559 632 681 707 700 660 584 469 339 225 201 203 206 182 111 27 -1 -1 -1 14 55 74 69 25 -1 -1 -1 -1 -1 -1 1 119 227 320 416 494 565 616 649 659 646 614 568 517 461 401 333 251 174 98 110 123 156 187 214 229 217 174 100 23 -1 30 112 216 318 413 500 567 611 636 646 653 661 676 697 725 756 789 815 824 811 779 752 736 739 741 737 716 683 641 610 600 601 610 614 609 596 571 535 487 451 430 450 482 509 532 553 587 628 679 731 772 797 802 781 736 672 604 549 510 485 480 475 471 470 474 481 491 496 502 501 493 467 438 402 359 308 248 189 125 62 -1 -1 -1 -1 -1 -1 -1 -1 -1 -1 -1
-1 -1 -1 -1 -1 -1 -1 -1 -1 -1 -1 49 122 184 230 265 294 308 307 297 276 245 205 182 181 249 358 461 555 633 686 711 707 669 593 494 387 330 304 297 273 211 126 13 22 43 91 132 164 178 165 126 57 -1 -1 -1 -1 -1 15 118 230 331 415 499 566 619 650 659 643 608 562 509 458 408 355 293 217 147 73 73 74 100 132 155 147 108 40 -1 -1 12 98 193 303 404 492 569 626 663 685 699 712 728 747 771 799 827 847 855 846 827 808 800 794 793 780 758 730 700 680 670 669 665 654 634 605 570 526 481 442 446 477 519 556 584 611 639 676 716 760 796 818 823 809 776 729 680 639 608 585 569 565 564 565 566 572 574 579 579 577 564 546 518 485 441 386 320 249 173 95 11 -1 -1 -1 -1 -1 -1 -1 -1 -1 -1
-1 -1 -1 -1 -1 -1 -1 -1 -1 -1 -1 74 158 228 286 333 368 388 400 398 388 368 342 313 309 323 391 479 565 639 692 721 717 681 618 538 475 434 403 364 303 225 115 117 131 171 208 242 262 269 257 221 164 100 51 13 -1 1 59 150 242 344 431 506 574 622 652 657 638 598 541 478 423 381 347 310 259 190 125 55 35 33 63 78 80 44 -1 -1 -1 11 84 185 279 388 485 567 636 688 721 746 763 781 799 819 843 867 882 888 883 872 860 852 848 837 824 804 783 762 743 731 721 704 677 640 595 549 507 474 453 476 515 560 601 637 667 696 724 758 790 818 834 838 828 806 776 743 718 697 678 661 651 653 653 655 656 658 656 655 647 635 614 588 549 501 439 363 278 186 89 -1 -1 -1 -1 -1 -1 -1 -1 -1 -1 -1
-1 -1 -1 -1 -1 -1 -1 -1 -1 -1 -1 83 179 258 327 385 428 458 475 484 482 472 457 442 425 437 460 519 590 656 708 734 733 704 652 601 557 519 475 408 323 218 205 216 250 281 311 332 344 344 331 299 251 200 158 128 113 108 140 196 280 361 448 521 582 629 654 656 632 581 512 432 362 327 310 298 272 231 174 119 75 50 19 25 13 -1 -1 -1 -1 16 89 173 276 370 476 567 641 704 751 783 810 830 847 867 884 902 913 917 915 908 900 895 889 881 867 851 833 815 798 781 759 731 687 638 574 517 481 464 488 522 566 605 648 686 718 746 771 794 816 831 840 839 830 816 798 782 770 761 753 741 733 731 734 731 732 730 727 721 711 696 673 641 597 540 466 377 274 162 44 -1 -1 -1 -1 -1 -1 -1 -1 -1 -1 -1
-1 -1 -1 -1 -1 -1 -1 -1 -1 -1 -1 82 186 278 354 418 471 508 534 549 556 555 548 543 538 534 551 577 628 685 729 754 755 733 697 663 627 588 529 449 344 296 294 322 347 370 390 402 405 400 385 357 321 283 251 229 216 215 227 268 324 396 465 536 594 636 658 655 626 573 494 401 315 261 254 260 260 243 213 177 140 98 53 6 -1 -1 -1 -1 -1 19 95 182 270 374 466 567 650 717 770 814 845 870 889 905 918 927 934 936 934 929 926 922 919 911 902 890 873 859 842 820 789 747 698 631 565 499 475 492 527 574 617 659 692 730 760 786 806 820 829 832 829 820 808 797 788 786 790 796 801 801 798 796 795 793 789 785 779 771 758 741 715 679 628 560 474 367 241 106 -1 -1 -1 -1 -1 -1 -1 -1 -1 -1 -1 -1
-1 -1 -1 -1 -1 -1 -1 -1 -1 -1 -1 81 186 284 367 438 494 539 572 593 608 615 619 619 621 623 626 645 674 715 753 776 781 768 745 717 687 643 580 494 417 382 389 409 425 437 444 447 444 435 421 401 375 349 327 307 300 300 312 332 379 431 491 550 603 642 661 656 626 570 494 403 312 235 197 213 224 228 221 204 181 148 104 66 34 17 -1 -1 -1 34 103 192 285 376 476 567 657 728 790 836 874 900 918 930 936 939 938 935 933 931 931 930 929 927 922 914 904 890 873 847 811 769 709 641 568 531 520 539 578 623 667 704 737 765 791 810 823 827 824 812 797 778 759 746 743 753 776 803 823 836 841 842 839 833 826 817 809 799 785 767 740 701 646 570 470 343 202 41 -1 -1 -1 -1 -1 -1 -1 -1 -1 -1 -1 -1
-1 -1 -1 -1 -1 -1 -1 -1 -1 -1 -1 71 178 277 364 438 500 547 585 614 636 652 661 669 674 680 686 696 719 746 776 797 805 801 787 765 736 692 630 558 497 469 472 478 482 481 477 470 462 452 441 427 412 397 381 367 358 362 372 391 419 466 517 567 615 648 664 658 627 576 505 424 338 258 204 167 184 192 203 203 195 179 155 128 105 83 64 41 35 52 126 209 302 397 491 583 664 743 807 857 893 919 933 938 936 931 921 912 906 907 909 914 919 923 924 923 917 907 890 866 833 789 730 661 614 590 588 604 635 674 710 739 764 785 802 814 818 814 796 771 740 709 683 664 671 695 741 787 821 844 857 861 859 851 837 824 812 800 787 770 746 709 653 573 466 339 179 16 -1 -1 -1 -1 -1 -1 -1 -1 -1 -1 -1 -1
-1 -1 -1 -1 -1 -1 -1 -1 -1 -1 -1 57 159 254 341 416 478 529 573 608 638 660 677 689 699 707 716 728 743 764 789 810 823 827 820 803 777 736 682 620 571 547 534 527 516 503 489 476 464 454 446 441 435 428 418 407 399 399 411 427 452 489 535 582 622 654 666 659 630 581 519 446 372 297 233 185 141 154 167 179 186 185 176 165 155 143 129 115 101 116 159 244 332 427 518 604 685 757 821 872 907 928 936 930 919 902 884 865 857 854 863 875 885 896 905 910 911 905 893 874 846 808 760 709 676 660 662 672 691 715 740 758 771 781 786 791 792 781 754 710 662 617 580 570 575 634 699 758 801 832 850 858 856 846 827 805 789 776 763 750 732 701 652 576 477 348 201 40 -1 -1 -1 -1 -1 -1 -1 -1 -1 -1 -1 -1
-1 -1 -1 -1 -1 -1 -1 -1 -1 -1 -1 26 122 209 290 364 427 483 533 577 611 639 662 679 692 702 713 725 740 758 782 807 826 840 842 833 810 775 729 676 633 602 579 555 529 505 485 469 456 449 446 447 449 446 440 430 423 422 429 444 468 503 546 591 628 656 666 658 629 584 527 462 393 327 265 203 158 115 127 143 159 167 170 173 176 179 180 178 179 185 223 290 372 457 547 632 710 779 836 881 914 927 927 911 884 855 821 798 778 781 794 812 831 851 867 878 884 884 878 866 848 821 790 758 734 727 728 734 741 748 753 753 749 743 740 739 739 729 697 640 569 501 467 450 503 575 651 717 765 799 823 835 835 823 798 766 741 725 714 707 698 677 638 578 488 373 238 90 -1 -1 -1 -1 -1 -1 -1 -1 -1 -1 -1 -1
-1 -1 -1 -1 -1 -1 -1 -1 -1 -1 -1 -1 55 134 209 280 346 409 467 518 559 592 620 641 655 665 673 684 699 718 746 779 812 838 853 854 839 809 767 721 676 639 603 563 525 491 471 457 447 442 445 451 457 459 454 446 437 432 434 447 472 506 548 593 630 656 663 651 622 578 522 461 399 337 280 222 167 119 84 100 119 132 146 155 168 186 206 225 238 257 286 341 414 495 579 663 737 799 850 889 912 919 907 880 840 794 748 707 687 685 702 726 758 786 810 825 836 840 842 839 830 818 803 790 781 777 780 781 776 763 741 714 686 668 657 660 662 658 631 564 468 386 331 363 431 515 593 662 714 752 780 798 802 787 755 711 671 650 638 639 641 635 611 567 497 397 277 143 2 -1 -1 -1 -1 -1 -1 -1 -1 -1 -1 -1
-1 -1 -1 -1 -1 -1 -1 -1 -1 -1 -1 -1 -1 30 98 165 236 305 374 434 485 527 558 580 592 596 602 607 620 643 680 729 779 823 854 866 861 837 800 755 708 663 612 566 515 478 454 446 442 444 450 458 466 467 462 453 443 434 433 446 469 508 548 593 630 654 658 642 608 562 505 445 385 327 272 220 165 118 78 74 80 98 107 121 141 173 210 247 280 310 349 400 461 533 611 690 760 817 861 891 905 900 879 841 788 726 661 609 578 574 587 627 669 707 736 757 768 778 783 786 788 787 791 795 803 810 813 810 794 759 703 635 582 549 542 549 565 572 552 490 382 260 230 272 356 445 523 591 646 691 727 751 760 747 706 647 586 549 539 543 557 572 571 546 496 417 316 192 61 -1 -1 -1 -1 -1 -1 -1 -1 -1 -1 -1
-1 -1 -1 -1 -1 -1 -1 -1 -1 -1 -1 -1 -1 -1 -1 22 92 177 262 339 402 452 484 503 509 509 504 503 512 538 594 663 737 801 847 873 876 860 826 781 730 674 620 564 517 473 450 441 446 453 462 471 478 478 471 459 445 434 431 443 470 507 551 593 630 652 653 632 591 535 475 412 352 296 245 195 151 106 109 106 98 73 76 84 104 150 199 252 300 347 396 450 511 574 646 718 780 831 866 886 887 871 839 794 733 659 575 503 462 446 475 518 570 616 648 672 686 692 699 704 711 728 747 774 799 820 831 825 798 744 656 547 444 400 395 416 447 469 465 423 324 192 135 183 274 361 438 506 566 617 663 695 713 707 669 599 511 443 420 424 456 490 513 513 483 430 346 239 121 0 -1 -1 -1 -1 -1 -1 -1 -1 -1 -1
-1 -1 -1 -1 -1 -1 -1 -1 -1 -1 -1 -1 -1 -1 -1 -1 -1 32 144 244 320 373 407 418 417 405 391 381 383 429 503 601 694 776 836 873 887 877 847 801 747 689 628 574 519 481 454 449 459 470 479 488 492 489 481 465 449 435 432 445 472 509 552 596 629 650 647 619 571 506 436 367 305 251 201 164 126 142 148 150 130 98 57 53 80 122 181 245 309 370 429 490 551 616 680 744 799 840 863 868 854 824 785 735 672 590 495 400 335 330 354 408 468 519 556 576 584 587 586 587 605 636 679 727 775 814 833 830 798 729 621 479 343 247 239 267 312 352 374 362 297 197 94 119 182 267 341 410 474 535 590 634 662 668 640 579 491 386 309 314 340 394 437 462 458 425 364 277 174 60 -1 -1 -1 -1 -1 -1 -1 -1 -1 -1
-1 -1 -1 -1 -1 -1 -1 -1 -1 -1 -1 -1 -1 -1 -1 -1 -1 -1 37 150 234 292 326 335 326 305 279 257 280 344 445 549 657 750 822 869 891 888 863 820 766 707 646 584 532 489 469 470 479 490 499 504 506 502 492 476 457 440 434 449 476 514 557 599 632 647 639 606 548 477 395 318 252 198 164 132 160 180 196 190 164 119 73 42 60 107 164 234 307 380 453 520 588 651 714 770 814 842 850 836 804 759 710 658 596 520 418 308 221 203 242 301 365 419 453 472 470 455 442 447 470 532 605 677 745 797 829 831 800 728 615 471 307 179 117 137 178 231 283 302 280 214 139 61 105 158 232 302 375 447 509 563 604 622 613 572 498 404 308 213 236 280 341 389 412 404 365 301 214 107 -1 -1 -1 -1 -1 -1 -1 -1 -1 -1
-1 -1 -1 -1 -1 -1 -1 -1 -1 -1 -1 -1 -1 -1 -1 -1 -1 -1 -1 54 153 215 247 257 243 217 187 181 220 305 405 518 625 725 806 861 892 895 875 835 786 727 664 604 548 509 496 495 502 510 516 518 517 512 502 485 465 445 437 452 482 520 564 604 632 642 628 589 526 445 355 269 200 155 131 165 197 228 239 229 195 146 88 47 53 94 156 226 305 389 467 546 618 685 742 793 825 836 824 786 732 671 610 551 496 427 333 217 114 88 129 197 267 319 350 355 344 314 290 287 354 443 540 634 719 785 824 834 807 743 639 503 354 221 143 88 82 139 189 235 247 226 168 105 29 67 119 196 274 351 418 481 532 567 576 560 513 435 328 224 125 162 222 294 347 365 351 306 235 140 28 -1 -1 -1 -1 -1 -1 -1 -1 -1
-1 -1 -1 -1 -1 -1 -1 -1 -1 -1 -1 -1 -1 -1 -1 -1 -1 -1 -1 -1 66 137 178 193 185 156 139 154 207 285 383 494 603 703 790 854 891 901 884 850 801 746 685 626 572 541 525 519 521 524 524 524 522 518 508 491 469 448 440 455 486 527 569 608 632 636 614 566 496 410 312 220 157 130 170 207 246 276 283 268 229 173 108 57 59 94 153 230 314 396 485 567 646 712 767 808 829 820 782 718 637 558 484 419 362 301 227 122 18 -1 32 106 176 223 241 239 214 183 149 198 287 394 503 608 703 776 823 839 820 765 676 562 437 334 250 181 126 77 119 158 198 208 189 132 70 -1 32 88 167 245 320 390 450 499 531 537 513 454 361 231 114 39 100 190 262 307 316 291 238 157 55 -1 -1 -1 -1 -1 -1 -1 -1 -1
-1 -1 -1 -1 -1 -1 -1 -1 -1 -1 -1 -1 -1 -1 -1 -1 -1 -1 -1 -1 -1 72 127 155 153 136 124 155 204 279 369 471 580 683 773 844 890 905 894 862 817 761 705 650 601 569 548 535 527 523 521 519 518 515 507 492 472 452 444 459 491 532 575 610 629 625 596 539 463 370 269 188 143 175 213 261 300 321 329 309 265 201 134 78 60 102 165 242 326 416 501 589 666 734 785 818 825 795 731 634 522 426 339 270 207 161 109 37 -1 -1 -1 30 91 126 135 123 107 83 128 192 283 390 498 602 698 774 824 845 834 791 718 625 532 448 373 296 212 137 65 95 133 170 176 155 97 35 -1 5 62 140 216 290 360 425 475 502 497 458 377 265 120 -1 2 71 162 225 262 261 224 158 70 -1 -1 -1 -1 -1 -1 -1 -1 -1
-1 -1 -1 -1 -1 -1 -1 -1 -1 -1 -1 -1 -1 -1 -1 -1 -1 -1 -1 -1 -1 50 107 143 147 128 133 152 201 268 356 452 555 661 758 833 884 905 899 871 825 775 720 670 624 587 560 537 518 506 500 499 499 500 497 489 474 457 448 465 497 538 578 611 624 614 577 516 432 336 248 180 196 232 277 314 348 372 374 351 301 233 158 97 72 108 179 261 347 436 524 608 687 752 800 824 817 770 679 553 408 290 224 150 116 86 52 8 -1 -1 -1 -1 5 29 35 31 38 106 172 248 328 419 520 618 706 779 828 851 846 812 753 679 605 532 461 386 302 204 121 48 76 109 141 145 123 65 7 -1 -1 34 107 185 266 343 410 456 470 449 389 289 152 20 -1 -1 41 131 191 209 191 141 63 -1 -1 -1 -1 -1 -1 -1 -1 -1
-1 -1 -1 -1 -1 -1 -1 -1 -1 -1 -1 -1 -1 -1 -1 -1 -1 -1 -1 -1 26 65 116 148 154 146 130 151 186 254 334 431 531 639 737 819 875 901 898 871 830 780 727 676 632 594 559 525 494 473 467 465 467 473 480 482 474 462 456 472 505 545 582 609 618 603 566 501 420 333 254 236 260 301 339 373 399 418 418 389 335 262 184 118 88 123 194 279 366 452 540 624 701 767 811 829 810 748 638 492 342 227 178 192 179 164 134 97 59 14 -1 -1 -1 -1 -1 -1 73 154 241 321 396 476 560 647 726 790 836 857 851 820 769 706 639 575 512 441 363 276 180 99 30 54 84 115 120 97 42 -1 -1 -1 5 84 173 267 347 404 433 431 389 308 192 45 -1 -1 -1 32 103 140 139 102 37 -1 -1 -1 -1 -1 -1 -1 -1 -1
-1 -1 -1 -1 -1 -1 -1 -1 -1 -1 -1 -1 -1 -1 -1 -1 18 56 75 89 98 120 141 166 175 167 150 140 176 232 311 400 507 610 713 799 860 892 892 866 821 770 714 663 620 584 547 507 464 434 421 421 423 435 450 463 471 470 468 489 518 555 587 609 614 598 560 504 434 362 314 311 334 367 401 430 452 461 456 425 366 288 207 140 104 135 204 288 376 466 550 636 713 778 820 833 806 737 621 473 346 291 286 296 305 285 251 199 138 59 -1 -1 -1 -1 -1 9 102 205 296 379 461 537 613 686 754 810 846 859 845 809 756 694 631 571 516 459 394 322 241 152 75 11 36 67 95 98 74 20 -1 -1 -1 0 97 194 282 351 393 405 381 318 216 79 -1 -1 -1 -1 7 56 67 44 -1 -1 -1 -1 -1 -1 -1 -1 -1 -1
-1 -1 -1 -1 -1 -1 -1 -1 -1 -1 -1 -1 -1 -1 -1 0 66 116 149 162 174 177 183 192 200 194 173 146 162 209 279 370 472 582 684 773 840 877 878 848 799 740 678 625 587 556 521 483 442 398 377 367 374 389 411 443 468 482 493 507 538 569 595 611 610 593 560 514 459 407 386 389 408 431 457 481 499 502 489 455 392 312 227 155 118 140 203 284 374 468 560 649 725 788 828 838 810 739 634 515 437 407 406 412 404 375 320 249 155 68 -1 -1 -1 -1 -1 10 110 218 322 416 504 587 659 728 786 832 857 855 826 774 709 639 575 516 468 427 384 335 274 202 121 53 -1 23 51 76 77 52 -1 -1 -1 -1 27 130 225 302 352 375 364 317 230 108 -1 -1 -1 -1 -1 -1 -1 -1 -1 -1 -1 -1 -1 -1 -1 -1 -1 -1
-1 -1 -1 -1 -1 -1 -1 -1 -1 -1 -1 -1 -1 -1 -1 -1 80 148 194 221 233 236 232 230 230 222 199 172 151 182 244 334 439 548 655 747 819 856 858 824 766 697 628 570 536 512 484 456 420 381 342 329 338 356 389 431 472 499 520 541 561 589 607 614 605 586 558 523 484 453 446 455 470 487 505 523 535 535 517 479 416 330 238 162 129 142 191 268 360 458 561 655 737 799 837 847 819 756 665 588 538 515 505 490 462 409 331 227 131 24 9 -1 -1 -1 -1 -1 87 200 318 428 524 615 695 762 818 853 863 845 793 714 624 537 462 403 362 339 325 306 273 223 161 90 29 -1 6 31 56 56 30 -1 -1 -1 -1 72 168 249 306 337 340 309 242 137 10 -1 -1 -1 -1 -1 -1 -1 -1 -1 -1 -1 -1 -1 -1 -1 -1 -1
-1 -1 -1 -1 -1 -1 -1 -1 -1 -1 -1 -1 -1 -1 -1 -1 63 151 217 260 281 287 285 274 263 247 221 185 162 161 223 305 407 516 625 721 794 832 832 794 728 647 568 505 473 456 439 418 392 363 332 343 350 372 400 441 487 525 553 575 597 613 622 617 600 576 551 527 505 490 493 505 518 531 545 555 562 558 539 501 438 350 251 180 144 144 180 249 338 443 550 652 739 806 846 858 836 783 715 660 619 591 564 529 473 391 282 175 59 54 38 31 21 17 9 11 63 172 295 414 529 627 717 788 839 868 865 827 749 634 510 393 306 242 209 208 224 241 236 211 169 114 53 4 -1 -1 16 38 32 1 -1 -1 -1 17 110 192 253 296 311 297 247 166 58 -1 -1 -1 -1 -1 -1 -1 -1 -1 -1 -1 -1 -1 -1 -1 -1 -1
-1 -1 -1 -1 -1 -1 -1 -1 -1 -1 -1 -1 -1 -1 -1 -1 20 125 215 280 316 332 331 319 298 269 227 191 157 174 219 299 386 490 598 694 766 806 804 762 688 595 504 435 405 395 386 370 355 335 354 369 395 410 440 476 517 559 593 617 636 645 640 623 596 568 543 526 517 516 523 537 550 562 571 576 577 570 555 522 463 376 290 221 180 164 183 233 318 420 529 636 731 805 854 873 859 818 767 720 676 634 587 524 440 325 209 91 88 80 97 96 100 95 85 80 94 160 273 398 518 632 726 803 855 876 862 806 702 562 400 265 169 116 87 80 124 151 170 164 141 105 62 12 -1 -1 -1 -1 13 0 -1 -1 -1 -1 53 135 203 252 280 278 247 186 100 0 -1 -1 -1 -1 -1 -1 -1 -1 -1 -1 -1 -1 -1 -1 -1 -1
-1 -1 -1 -1 -1 -1 -1 -1 -1 -1 -1 -1 -1 -1 -1 -1 -1 74 185 277 337 366 373 361 335 291 233 179 179 199 243 303 385 475 574 669 741 780 777 728 642 540 437 368 344 336 328 324 313 335 370 408 436 465 488 524 565 604 639 665 679 680 663 635 599 564 537 522 521 526 539 554 569 578 583 581 578 572 563 538 489 419 349 290 250 219 202 233 296 391 500 613 714 795 857 886 882 852 809 762 707 647 576 483 363 245 123 120 128 153 160 173 178 182 176 164 171 200 281 392 516 629 732 812 865 882 860 792 683 521 363 238 181 139 108 89 50 74 87 94 82 61 35 8 -1 -1 -1 -1 -1 -1 -1 -1 -1 -1 -1 80 151 206 243 254 237 196 131 49 -1 -1 -1 -1 -1 -1 -1 -1 -1 -1 -1 -1 -1 -1 -1 -1
-1 -1 -1 -1 -1 -1 -1 -1 -1 -1 -1 -1 -1 -1 -1 -1 -1 1 136 251 338 388 409 406 375 324 249 191 192 233 270 326 389 473 560 646 719 758 753 697 603 486 388 321 300 294 292 291 307 337 387 438 482 513 548 583 624 662 693 716 727 718 692 652 608 568 537 519 517 525 542 561 576 583 582 574 566 561 557 545 516 470 424 382 342 304 269 244 285 359 466 579 685 783 852 894 901 878 837 781 714 634 536 419 279 152 158 182 214 227 240 247 263 270 267 263 258 286 331 422 526 638 739 821 873 890 864 799 684 554 421 338 287 254 215 161 102 27 23 16 7 -1 -1 -1 -1 -1 -1 -1 -1 -1 -1 -1 -1 -1 -1 18 91 154 200 222 218 192 144 78 1 -1 -1 -1 -1 -1 -1 -1 -1 -1 -1 -1 -1 -1 -1 -1
-1 -1 -1 -1 -1 -1 -1 -1 -1 -1 -1 -1 -1 -1 -1 -1 -1 -1 66 208 318 397 437 445 422 369 294 219 216 243 294 341 404 473 555 635 701 742 736 678 574 463 362 317 296 299 297 300 322 359 411 469 526 573 608 651 692 729 756 774 777 759 724 677 623 578 542 519 512 520 539 559 576 580 574 558 545 539 545 548 542 523 499 473 442 405 360 319 287 338 422 535 650 757 844 896 912 894 851 786 701 599 479 340 217 151 217 282 305 315 319 331 347 362 365 357 364 379 419 477 568 665 758 836 886 903 882 819 733 628 535 472 427 383 335 271 181 92 14 -1 -1 -1 -1 -1 -1 -1 -1 -1 -1 -1 -1 -1 -1 -1 -1 -1 26 97 152 184 193 176 138 85 22 -1 -1 -1 -1 -1 -1 -1 -1 -1 -1 -1 -1 -1 -1 -1
-1 -1 -1 -1 -1 -1 -1 -1 -1 -1 -1 -1 -1 -1 -1 -1 -1 -1 -1 146 283 388 455 481 471 429 360 293 239 259 293 352 412 482 557 632 695 733 731 676 582 468 390 349 332 328 335 341 357 396 448 508 572 630 679 717 763 800 824 834 829 803 759 703 646 592 548 519 508 514 533 557 572 574 561 541 521 519 530 547 561 568 566 555 539 509 468 414 365 325 386 479 606 728 829 893 916 902 855 782 684 555 404 272 174 240 310 376 406 405 409 418 437 456 464 465 466 482 513 563 628 713 793 862 909 926 908 864 798 723 656 600 554 505 448 377 287 194 116 62 35 9 -1 -1 -1 -1 -1 -1 -1 -1 -1 -1 -1 -1 -1 -1 -1 37 104 148 161 149 115 66 14 -1 -1 -1 -1 -1 -1 -1 -1 -1 -1 -1 -1 -1 -1 -1
-1 -1 -1 -1 -1 -1 -1 -1 -1 -1 14 40 24 -1 -1 -1 -1 -1 -1 83 239 369 461 512 523 497 445 381 321 264 292 338 411 486 561 632 696 736 739 695 614 525 464 419 394 383 385 401 418 451 504 565 630 693 749 798 835 870 892 894 879 844 793 733 668 610 558 526 513 515 534 554 572 572 554 533 519 509 522 542 573 599 617 626 622 606 575 524 456 393 347 428 552 697 812 887 916 902 851 767 651 505 333 190 223 322 418 476 501 505 502 514 532 551 563 571 576 586 613 652 707 772 842 900 941 957 946 914 865 811 755 703 652 603 544 471 390 308 238 183 142 106 60 8 -1 -1 -1 -1 -1 -1 -1 -1 -1 -1 -1 -1 -1 -1 66 115 132 118 77 25 -1 -1 -1 -1 -1 -1 -1 -1 -1 -1 -1 -1 -1 -1 -1 -1
-1 -1 -1 -1 -1 -1 -1 -1 -1 -1 80 130 141 107 32 -1 -1 -1 -1 33 194 341 461 539 574 570 537 481 407 332 281 324 400 481 564 637 703 748 760 734 674 612 560 521 483 459 458 471 498 530 577 639 705 769 829 876 916 939 956 952 927 882 823 757 692 630 581 544 532 533 542 564 581 581 572 554 536 521 516 541 576 618 654 680 693 692 671 625 552 453 375 363 501 664 796 878 909 890 827 730 598 434 275 187 275 406 509 569 598 605 605 613 631 648 664 674 686 697 712 746 793 845 899 945 977 990 982 956 917 871 822 770 721 670 609 542 468 398 334 281 236 194 145 87 23 -1 -1 -1 -1 -1 -1 -1 -1 -1 -1 -1 -1 -1 43 92 108 89 38 -1 -1 -1 -1 -1 -1 -1 -1 -1 -1 -1 -1 -1 -1 -1 -1 -1
-1 -1 -1 -1 -1 -1 -1 -1 -1 20 134 212 249 242 191 111 22 -1 -1 13 162 319 456 562 622 641 623 576 503 405 314 326 390 477 561 644 714 767 791 784 753 711 670 631 591 557 546 562 590 623 666 721 785 853 914 962 991 1013 1015 1004 966 910 842 777 713 660 612 580 563 564 574 587 605 613 608 593 571 548 530 542 578 625 676 718 750 761 752 712 632 515 388 351 461 638 783 868 895 866 787 670 519 366 231 265 356 481 586 652 688 702 705 717 728 746 762 778 787 800 817 839 876 918 958 992 1012 1018 1009 983 948 905 856 806 755 700 639 574 507 443 385 337 295 253 206 150 87 27 -1 -1 -1 -1 -1 -1 -1 -1 -1 -1 -1 -1 29 81 97 74 15 -1 -1 -1 -1 -1 -1 -1 -1 -1 -1 -1 -1 -1 -1 -1 -1 -1
-1 -1 -1 -1 -1 -1 -1 -1 -1 31 173 279 345 367 344 284 206 125 70 73 164 314 462 581 666 706 704 668 595 495 397 336 390 478 568 650 726 787 825 841 833 811 780 743 704 671 655 667 693 728 766 813 869 934 997 1044 1072 1080 1075 1045 993 922 849 779 726 682 649 622 609 605 616 630 645 656 656 642 623 597 573 556 579 623 680 739 787 815 817 782 698 567 424 360 460 631 772 858 878 833 734 593 446 305 316 365 460 562 659 727 770 793 805 813 829 843 861 876 889 897 914 932 957 986 1013 1032 1038 1034 1016 989 951 908 859 805 749 689 626 562 497 437 385 343 308 273 233 185 131 76 30 -1 -1 -1 -1 -1 -1 -1 -1 -1 -1 -1 25 77 97 74 18 -1 -1 -1 -1 -1 -1 -1 -1 -1 -1 -1 -1 -1 -1 -1 -1 -1
-1 -1 -1 -1 -1 -1 -1 -1 -1 50 200 330 425 476 483 450 390 311 242 203 233 338 481 613 710 768 779 749 685 589 478 395 404 483 576 661 736 804 857 891 906 902 881 854 821 793 776 781 805 840 873 913 963 1020 1079 1123 1147 1146 1123 1076 1004 919 831 765 720 691 672 658 652 658 666 683 696 710 713 707 689 666 637 613 591 621 673 740 801 848 864 837 756 620 466 393 486 636 772 851 860 801 683 536 387 387 423 492 573 656 732 800 848 876 894 908 919 940 956 971 982 990 1001 1015 1031 1046 1056 1059 1050 1029 998 962 921 873 820 762 701 638 571 503 437 377 329 295 272 249 222 189 148 104 59 19 -1 -1 -1 -1 -1 -1 -1 -1 -1 -1 27 81 104 89 38 -1 -1 -1 -1 -1 -1 -1 -1 -1 -1 -1 -1 -1 -1 -1 -1 -1
-1 -1 -1 -1 -1 -1 -1 -1 -1 68 225 368 486 567 604 600 559 497 423 370 359 414 524 650 755 823 845 824 764 673 565 481 462 510 588 672 748 817 879 931 965 980 977 959 938 912 902 899 921 950 984 1019 1059 1113 1162 1201 1217 1206 1165 1097 1004 897 803 732 697 682 677 678 686 699 721 736 757 767 776 776 766 746 720 688 659 627 664 723 798 859 894 882 809 678 524 443 520 656 778 849 849 776 666 528 472 492 554 616 683 753 820 878 925 959 983 996 1012 1027 1047 1060 1070 1074 1080 1086 1092 1092 1085 1067 1036 994 947 900 850 795 737 675 614 549 478 406 332 269 219 195 186 182 175 162 136 103 64 22 -1 -1 -1 -1 -1 -1 -1 -1 -1 -1 40 93 118 109 67 -1 -1 -1 -1 -1 -1 -1 -1 -1 -1 -1 -1 -1 -1 -1 -1 -1
-1 -1 -1 -1 -1 -1 -1 -1 -1 86 249 400 536 636 702 725 710 666 608 548 514 525 596 703 805 875 905 890 833 746 650 569 542 561 616 681 753 824 891 954 1008 1043 1059 1059 1045 1030 1016 1020 1029 1060 1088 1122 1161 1202 1246 1274 1283 1258 1199 1113 999 886 779 708 678 668 675 682 701 729 760 792 815 834 843 850 848 835 811 779 736 692 652 701 775 859 910 916 858 742 602 524 560 683 796 859 855 794 695 637 617 626 677 737 796 852 909 964 1007 1041 1069 1085 1097 1112 1127 1140 1148 1150 1148 1145 1138 1121 1094 1049 992 923 860 799 737 675 611 550 488 427 356 281 201 124 77 60 68 81 99 104 98 78 48 9 -1 -1 -1 -1 -1 -1 -1 -1 -1 -1 60 111 137 132 97 35 -1 -1 -1 -1 -1 -1 -1 -1 -1 -1 -1 -1 -1 -1 -1 -1
-1 -1 -1 -1 -1 -1 -1 -1 -1 108 276 432 572 692 777 826 837 815 772 725 676 657 693 771 864 931 960 947 891 809 719 648 612 615 650 696 753 820 892 964 1031 1086 1123 1141 1141 1132 1129 1127 1141 1159 1191 1223 1256 1292 1324 1345 1341 1305 1233 1132 1017 888 782 719 693 682 668 675 698 739 787 833 871 897 915 926 930 926 904 873 825 760 692 669 749 847 919 942 906 814 700 639 651 725 821 883 889 845 795 769 765 778 802 853 906 954 1004 1051 1092 1122 1148 1167 1180 1189 1201 1211 1214 1212 1202 1187 1166 1132 1080 1008 920 822 736 659 588 515 446 383 331 279 213 145 81 9 -1 -1 -1 -1 8 26 42 36 15 -1 -1 -1 -1 -1 -1 -1 -1 -1 -1 20 83 132 156 152 121 66 -1 -1 -1 -1 -1 -1 -1 -1 -1 -1 -1 -1 -1 -1 -1 -1
-1 -1 -1 -1 -1 -1 -1 -1 -1 141 305 465 611 737 838 905 939 941 917 878 835 801 803 855 926 988 1016 999 945 864 776 707 665 656 671 703 746 803 875 954 1035 1106 1163 1201 1221 1225 1226 1232 1241 1261 1286 1319 1349 1375 1398 1409 1397 1350 1271 1166 1045 928 827 767 735 707 681 665 686 737 800 863 917 955 983 1004 1013 1009 996 965 913 833 739 671 720 821 920 968 957 894 819 766 765 810 870 925 942 925 905 896 901 911 933 964 1008 1054 1097 1137 1171 1201 1223 1239 1252 1261 1265 1269 1267 1256 1236 1210 1174 1121 1047 950 830 700 583 488 406 325 255 197 158 128 95 39 22 38 26 8 -1 -1 -1 -1 -1 -1 -1 -1 -1 -1 -1 -1 -1 -1 -1 -1 -1 49 108 150 170 163 133 83 20 -1 -1 -1 -1 -1 -1 -1 -1 -1 -1 -1 -1 -1 -1 -1
-1 -1 -1 -1 -1 -1 -1 -1 12 174 344 501 649 779 888 968 1021 1042 1037 1010 971 938 925 949 999 1047 1068 1050 992 905 818 738 695 675 678 692 726 776 844 927 1017 1105 1181 1241 1280 1303 1313 1323 1338 1356 1378 1407 1432 1453 1467 1469 1447 1395 1312 1208 1094 983 892 826 776 732 691 667 684 735 808 885 954 1011 1048 1076 1091 1094 1082 1052 995 906 794 705 690 798 915 992 1010 984 938 900 886 909 948 983 1009 1014 1008 1011 1019 1035 1051 1073 1106 1146 1184 1215 1243 1270 1289 1302 1311 1319 1319 1313 1301 1279 1249 1209 1158 1088 993 873 728 570 416 304 219 166 101 78 62 55 54 95 115 131 135 109 60 5 -1 -1 -1 -1 -1 -1 -1 -1 -1 -1 -1 -1 -1 -1 24 83 131 163 173 158 125 77 19 -1 -1 -1 -1 -1 -1 -1 -1 -1 -1 -1 -1 -1 -1 -1
-1 -1 -1 -1 -1 -1 -1 -1 51 216 381 542 688 820 932 1023 1085 1122 1131 1118 1089 1057 1042 1051 1079 1108 1121 1096 1030 941 838 760 700 674 668 676 700 742 803 887 984 1083 1181 1259 1318 1359 1386 1405 1423 1444 1464 1483 1506 1523 1529 1523 1493 1438 1355 1256 1148 1042 948 871 805 745 702 680 702 755 827 910 994 1060 1112 1143 1166 1173 1162 1130 1071 976 855 735 692 780 913 1010 1060 1063 1043 1019 1009 1010 1035 1063 1086 1101 1109 1113 1128 1143 1159 1177 1200 1230 1258 1283 1307 1326 1343 1352 1358 1358 1352 1338 1314 1280 1237 1185 1116 1029 918 780 622 444 292 163 122 108 141 148 155 156 183 212 243 249 235 199 143 74 -1 -1 -1 -1 -1 -1 -1 -1 -1 -1 -1 -1 -1 26 72 117 151 166 159 133 91 41 -1 -1 -1 -1 -1 -1 -1 -1 -1 -1 -1 -1 -1 -1 -1 -1
-1 -1 -1 -1 -1 -1 -1 -1 75 247 414 573 723 855 970 1064 1136 1181 1202 1202 1186 1161 1145 1148 1159 1174 1174 1140 1069 967 866 769 703 672 665 667 685 712 763 839 940 1050 1156 1254 1335 1395 1438 1471 1497 1521 1538 1558 1573 1585 1588 1572 1537 1477 1397 1299 1193 1081 976 889 810 751 710 720 751 801 873 953 1037 1115 1170 1211 1234 1246 1236 1205 1143 1045 913 777 704 779 906 1026 1097 1129 1128 1120 1112 1116 1124 1146 1170 1187 1200 1213 1223 1241 1255 1267 1285 1303 1323 1339 1356 1371 1383 1388 1387 1380 1364 1338 1302 1255 1199 1133 1053 949 823 673 505 358 222 218 219 249 277 307 317 325 333 348 352 341 311 262 193 113 26 -1 -1 -1 -1 -1 -1 -1 -1 -1 4 32 59 90 123 150 161 152 124 80 29 -1 -1 -1 -1 -1 -1 -1 -1 -1 -1 -1 -1 -1 -1 -1 -1 -1
-1 -1 -1 -1 -1 -1 -1 -1 71 254 427 590 741 878 994 1090 1167 1220 1252 1264 1259 1247 1235 1230 1235 1240 1227 1185 1107 1007 895 794 728 700 688 685 682 691 722 794 892 1011 1128 1239 1337 1418 1475 1521 1557 1584 1606 1621 1634 1639 1637 1616 1575 1514 1430 1327 1213 1084 964 861 792 746 758 782 826 883 948 1020 1098 1171 1233 1274 1299 1310 1303 1272 1212 1112 979 830 735 780 909 1031 1124 1176 1197 1198 1201 1206 1215 1228 1250 1271 1282 1298 1313 1327 1338 1347 1356 1365 1374 1383 1392 1400 1405 1405 1397 1382 1355 1316 1262 1200 1128 1051 962 849 714 562 423 304 331 359 401 427 448 461 465 461 457 448 431 398 351 287 209 119 25 -1 -1 -1 -1 -1 20 33 47 57 82 106 129 150 168 173 157 117 64 1 -1 -1 -1 -1 -1 -1 -1 -1 -1 -1 -1 -1 -1 -1 -1 -1 -1 -1
-1 -1 -1 -1 -1 -1 -1 -1 50 233 416 585 741 877 998 1095 1173 1232 1274 1299 1309 1307 1304 1301 1301 1298 1280 1232 1155 1058 953 857 795 766 747 731 716 708 721 770 867 980 1107 1227 1340 1431 1504 1558 1601 1636 1660 1677 1687 1690 1679 1656 1611 1544 1451 1339 1198 1058 920 810 771 793 825 872 922 983 1048 1112 1175 1237 1293 1336 1360 1370 1362 1334 1277 1183 1054 908 805 813 911 1035 1136 1207 1246 1264 1272 1283 1297 1310 1324 1343 1361 1374 1389 1400 1408 1410 1412 1411 1410 1409 1409 1409 1408 1401 1387 1364 1327 1271 1199 1111 1016 926 834 729 600 483 379 427 473 531 569 590 594 590 577 558 537 508 468 416 352 277 191 96 -1 -1 -1 -1 -1 47 86 114 125 143 158 179 196 205 202 181 134 64 -1 -1 -1 -1 -1 -1 -1 -1 -1 -1 -1 -1 -1 -1 -1 -1 -1 -1 -1 -1
-1 -1 -1 -1 -1 -1 -1 -1 8 195 379 553 709 848 965 1063 1142 1207 1259 1297 1323 1339 1347 1354 1354 1350 1329 1284 1214 1129 1041 962 905 866 839 811 787 769 770 799 870 981 1103 1233 1343 1445 1525 1589 1639 1676 1704 1722 1733 1733 1719 1693 1642 1566 1467 1328 1177 1010 875 815 829 868 922 975 1034 1093 1155 1209 1262 1311 1357 1394 1415 1422 1415 1388 1337 1253 1141 1015 926 891 939 1036 1138 1221 1276 1309 1330 1349 1365 1379 1395 1408 1427 1442 1451 1459 1460 1457 1448 1437 1425 1413 1403 1397 1391 1380 1362 1330 1284 1214 1115 1000 870 764 675 593 518 439 502 559 630 675 705 712 703 681 650 613 572 522 463 395 317 235 144 45 -1 -1 -1 -1 63 120 162 190 212 220 236 245 252 245 218 169 95 0 -1 -1 -1 -1 -1 -1 -1 -1 -1 -1 -1 -1 -1 -1 -1 -1 -1 -1 -1 -1
-1 -1 -1 -1 -1 -1 -1 -1 -1 133 316 486 641 772 884 977 1057 1130 1192 1247 1294 1333 1361 1380 1391 1392 1377 1339 1280 1218 1151 1087 1032 990 950 920 889 868 862 886 933 1018 1134 1253 1365 1459 1545 1616 1669 1709 1740 1759 1769 1768 1756 1724 1669 1589 1473 1336 1163 1009 921 909 936 981 1037 1097 1149 1205 1255 1305 1348 1386 1419 1446 1462 1465 1455 1430 1385 1317 1230 1138 1055 1008 1003 1055 1138 1223 1291 1339 1372 1399 1422 1441 1454 1471 1483 1495 1503 1502 1497 1483 1464 1441 1417 1395 1378 1366 1359 1349 1328 1289 1233 1151 1033 892 747 634 567 523 499 566 624 704 756 789 800 792 766 728 678 621 559 493 420 341 259 173 80 -1 -1 -1 11 76 142 200 242 271 289 301 303 304 293 266 214 140 41 -1 -1 -1 -1 -1 -1 -1 -1 -1 -1 -1 -1 -1 -1 -1 -1 -1 -1 -1 -1 -1
-1 -1 -1 -1 -1 -1 -1 -1 -1 47 222 381 520 636 733 820 904 985 1065 1144 1218 1287 1342 1383 1409 1424 1421 1395 1357 1312 1264 1211 1161 1119 1080 1045 1017 994 990 1003 1044 1107 1196 1299 1399 1490 1570 1638 1695 1738 1769 1789 1797 1798 1784 1751 1693 1609 1494 1354 1214 1101 1046 1048 1074 1114 1163 1220 1269 1311 1353 1392 1427 1454 1474 1489 1496 1492 1480 1456 1419 1368 1307 1237 1170 1121 1097 1106 1157 1226 1298 1355 1400 1436 1465 1488 1506 1521 1534 1540 1539 1532 1516 1492 1463 1428 1392 1362 1339 1326 1320 1311 1291 1253 1189 1095 979 836 723 663 627 618 647 695 760 808 844 857 850 824 782 725 658 581 500 422 340 258 178 96 22 -1 -1 43 106 167 228 280 321 347 364 368 363 345 316 266 192 96 -1 -1 -1 -1 -1 -1 -1 -1 -1 -1 -1 -1 -1 -1 -1 -1 -1 -1 -1 -1 -1 -1
-1 -1 -1 -1 -1 -1 -1 -1 -1 -1 95 227 338 429 507 587 677 776 883 997 1108 1214 1301 1368 1415 1444 1456 1448 1424 1396 1362 1324 1282 1242 1208 1178 1155 1136 1127 1142 1172 1225 1285 1364 1452 1531 1601 1664 1717 1761 1793 1813 1823 1821 1807 1774 1718 1637 1534 1416 1309 1237 1203 1200 1220 1251 1292 1340 1382 1414 1440 1467 1487 1502 1511 1514 1511 1502 1486 1464 1435 1398 1355 1307 1260 1216 1187 1180 1201 1249 1306 1367 1417 1460 1496 1525 1547 1562 1571 1571 1563 1545 1518 1485 1445 1403 1359 1320 1294 1282 1278 1273 1257 1223 1159 1074 965 879 817 782 767 772 793 822 851 874 882 874 848 808 752 679 596 501 403 312 231 145 79 24 -1 17 73 145 205 262 314 362 396 417 429 426 407 373 321 249 159 51 -1 -1 -1 -1 -1 -1 -1 -1 -1 -1 -1 -1 -1 -1 -1 -1 -1 -1 -1 -1 -1 -1
-1 -1 -1 -1 -1 -1 -1 -1 -1 -1 -1 40 109 167 229 309 412 542 691 847 1001 1139 1255 1345 1412 1457 1482 1490 1482 1466 1446 1418 1388 1357 1325 1306 1287 1272 1271 1275 1303 1341 1391 1446 1512 1580 1639 1691 1741 1780 1811 1832 1842 1841 1827 1798 1748 1677 1591 1500 1424 1376 1353 1351 1359 1383 1413 1449 1481 1502 1514 1523 1528 1529 1524 1515 1503 1487 1469 1451 1429 1405 1376 1347 1316 1285 1259 1250 1260 1289 1332 1380 1433 1480 1521 1555 1578 1592 1595 1589 1572 1544 1507 1464 1417 1370 1320 1278 1250 1239 1239 1241 1234 1207 1157 1082 1019 968 929 902 888 883 885 889 890 883 866 837 796 745 680 598 501 394 275 174 90 52 -1 -1 49 105 177 248 310 356 398 436 465 481 483 469 437 388 316 232 132 39 -1 -1 -1 1 10 2 -1 -1 -1 -1 -1 -1 -1 -1 -1 -1 -1 -1 -1 -1 -1 -1
-1 -1 -1 -1 -1 -1 -1 -1 -1 -1 -1 -1 -1 -1 -1 76 207 384 571 756 930 1087 1218 1326 1406 1465 1502 1521 1525 1522 1511 1496 1476 1454 1433 1412 1405 1397 1394 1405 1419 1448 1484 1528 1579 1631 1680 1723 1763 1797 1824 1844 1854 1854 1843 1817 1778 1721 1658 1588 1535 1503 1484 1479 1486 1497 1520 1543 1560 1571 1568 1559 1544 1527 1508 1489 1469 1450 1431 1415 1400 1386 1371 1356 1340 1323 1309 1303 1311 1333 1367 1407 1453 1500 1544 1577 1600 1610 1607 1592 1565 1528 1483 1432 1379 1332 1286 1243 1213 1204 1208 1220 1224 1208 1169 1127 1085 1046 1008 975 949 927 906 886 863 832 793 751 702 641 571 488 387 269 155 44 14 8 56 101 157 221 286 350 407 448 479 504 527 535 528 503 459 395 317 225 141 68 39 34 43 45 38 17 -1 -1 -1 -1 -1 -1 -1 -1 -1 -1 -1 -1 -1 -1 -1 -1
-1 -1 -1 -1 -1 -1 -1 -1 -1 -1 -1 -1 -1 -1 -1 8 175 353 545 734 911 1068 1203 1313 1403 1469 1515 1541 1555 1559 1557 1551 1543 1531 1517 1507 1497 1498 1503 1508 1521 1539 1566 1598 1634 1676 1715 1751 1782 1808 1830 1847 1856 1857 1850 1831 1800 1762 1717 1669 1631 1607 1591 1586 1587 1597 1604 1618 1624 1618 1601 1571 1536 1497 1462 1434 1410 1389 1370 1358 1350 1343 1340 1336 1332 1329 1329 1333 1345 1368 1402 1440 1481 1524 1563 1595 1614 1619 1607 1582 1545 1500 1448 1390 1337 1292 1251 1214 1190 1183 1196 1214 1225 1217 1194 1163 1124 1078 1030 983 938 896 857 815 774 724 672 620 566 503 435 356 260 164 61 75 82 122 173 232 287 338 393 448 494 528 551 568 579 581 566 531 476 408 324 243 165 109 80 64 52 36 13 -1 -1 -1 -1 -1 -1 -1 -1 -1 -1 -1 -1 -1 -1 -1 -1 -1
-1 -1 -1 -1 -1 -1 -1 -1 -1 -1 -1 -1 -1 -1 26 137 275 438 612 783 944 1091 1213 1320 1404 1474 1520 1550 1566 1575 1579 1580 1581 1580 1577 1573 1571 1574 1581 1590 1598 1611 1628 1651 1675 1705 1737 1765 1789 1809 1826 1838 1846 1848 1843 1831 1815 1792 1764 1734 1707 1687 1676 1667 1667 1669 1673 1674 1668 1650 1618 1574 1513 1450 1396 1357 1330 1310 1293 1287 1282 1282 1288 1294 1298 1306 1318 1335 1356 1385 1422 1464 1506 1545 1581 1608 1622 1618 1595 1559 1514 1459 1401 1341 1290 1250 1217 1193 1177 1188 1202 1220 1235 1232 1214 1176 1121 1056 987 916 850 792 739 687 631 570 505 450 396 342 275 206 151 84 131 160 215 258 307 357 402 448 491 537 572 595 613 623 626 620 599 556 497 422 347 264 190 127 68 30 -1 -1 -1 -1 -1 -1 -1 -1 -1 -1 -1 -1 -1 -1 -1 -1 -1 -1 -1 -1
-1 -1 -1 -1 -1 -1 -1 -1 -1 24 57 85 123 173 249 348 463 593 733 877 1016 1141 1251 1340 1417 1473 1516 1541 1556 1564 1572 1580 1589 1599 1607 1614 1619 1627 1634 1641 1648 1656 1667 1680 1697 1718 1739 1761 1779 1794 1807 1816 1821 1823 1822 1819 1812 1804 1791 1776 1760 1747 1735 1727 1721 1722 1720 1713 1697 1669 1630 1572 1497 1412 1335 1275 1247 1228 1216 1210 1207 1211 1224 1238 1247 1260 1279 1307 1340 1384 1429 1477 1524 1564 1596 1618 1624 1607 1571 1522 1471 1412 1349 1291 1242 1211 1191 1178 1186 1200 1223 1241 1251 1247 1219 1163 1076 975 870 776 692 621 565 510 455 383 312 251 216 176 138 90 94 171 221 287 335 382 422 461 500 534 571 604 631 649 660 665 664 652 626 582 521 451 370 290 207 122 27 -1 -1 -1 -1 -1 -1 -1 -1 -1 -1 -1 -1 -1 -1 -1 -1 -1 -1 -1 -1 -1
-1 -1 -1 -1 -1 -1 -1 -1 70 155 218 272 326 393 472 563 663 768 880 992 1104 1206 1296 1370 1428 1472 1500 1515 1521 1527 1534 1546 1567 1589 1611 1630 1644 1655 1661 1665 1667 1670 1674 1682 1693 1706 1722 1737 1752 1763 1772 1775 1778 1779 1782 1786 1791 1795 1796 1793 1789 1781 1772 1762 1757 1753 1746 1734 1713 1683 1640 1580 1501 1409 1313 1242 1202 1185 1173 1165 1158 1155 1170 1180 1192 1202 1224 1256 1307 1365 1422 1479 1530 1576 1608 1624 1620 1592 1541 1477 1416 1355 1297 1244 1205 1183 1180 1189 1204 1228 1247 1266 1273 1258 1214 1130 1005 845 698 572 482 415 362 317 267 227 149 125 107 98 100 159 215 276 348 399 446 480 511 540 566 593 617 645 666 681 689 694 690 676 650 606 550 482 404 318 225 118 12 -1 -1 -1 -1 -1 -1 -1 -1 -1 -1 -1 -1 -1 -1 -1 -1 -1 -1 -1 -1 -1
-1 -1 -1 -1 -1 -1 -1 3 142 258 355 433 506 581 666 750 838 929 1017 1107 1191 1270 1339 1392 1431 1455 1466 1465 1460 1458 1461 1485 1517 1558 1595 1626 1647 1658 1661 1660 1656 1652 1650 1652 1658 1670 1682 1696 1708 1717 1719 1718 1714 1713 1720 1730 1747 1764 1780 1790 1796 1794 1787 1778 1770 1762 1751 1737 1718 1691 1650 1594 1521 1434 1346 1275 1244 1222 1206 1190 1173 1156 1134 1138 1138 1150 1164 1209 1268 1336 1406 1472 1532 1580 1613 1625 1613 1572 1509 1428 1353 1292 1245 1212 1188 1190 1199 1216 1237 1261 1283 1295 1295 1266 1198 1081 913 718 517 392 318 279 242 205 178 163 209 209 216 226 256 304 362 414 461 503 531 553 568 582 596 611 630 650 671 685 695 701 701 691 667 631 580 518 443 358 258 151 40 -1 -1 -1 -1 -1 -1 -1 -1 -1 -1 -1 -1 -1 -1 -1 -1 -1 -1 -1 -1 -1
-1 -1 -1 -1 -1 -1 -1 19 179 324 450 556 647 734 819 901 979 1056 1130 1200 1265 1322 1367 1400 1417 1417 1406 1388 1371 1355 1363 1397 1455 1516 1567 1607 1632 1642 1638 1626 1615 1602 1595 1591 1599 1609 1627 1641 1652 1655 1652 1639 1629 1625 1631 1652 1680 1715 1747 1774 1787 1789 1783 1773 1762 1751 1739 1726 1711 1689 1656 1609 1547 1477 1404 1348 1319 1295 1270 1244 1213 1177 1140 1109 1106 1104 1128 1171 1232 1304 1382 1457 1522 1577 1612 1622 1602 1555 1477 1388 1300 1240 1207 1199 1208 1217 1237 1257 1281 1303 1322 1332 1321 1273 1180 1030 843 632 467 371 366 359 337 317 309 326 352 391 407 422 440 468 501 535 565 582 593 592 588 583 582 588 604 624 644 661 674 687 695 692 677 650 610 555 485 403 311 214 127 70 29 -1 -1 -1 -1 -1 -1 -1 -1 -1 -1 -1 -1 -1 -1 -1 -1 -1 -1 -1
-1 -1 -1 -1 -1 -1 -1 2 181 352 502 632 741 840 927 1007 1079 1145 1207 1262 1311 1348 1373 1383 1375 1353 1319 1282 1243 1229 1244 1317 1401 1475 1537 1580 1605 1609 1596 1573 1548 1525 1509 1505 1514 1537 1558 1577 1579 1579 1563 1543 1524 1512 1520 1553 1602 1659 1711 1747 1766 1771 1765 1752 1738 1723 1712 1701 1691 1677 1654 1619 1574 1520 1466 1424 1387 1361 1328 1288 1245 1196 1149 1111 1086 1088 1108 1146 1205 1279 1358 1437 1510 1568 1608 1617 1595 1538 1461 1361 1286 1228 1218 1232 1247 1267 1283 1310 1331 1353 1368 1374 1354 1292 1179 1021 837 688 578 535 533 537 534 526 527 532 547 568 588 596 603 609 622 635 641 640 627 602 573 547 529 531 546 568 591 611 632 651 670 679 677 662 633 588 529 458 379 301 242 191 150 118 90 64 37 13 -1 -1 -1 -1 -1 -1 -1 -1 -1 -1 -1 -1 -1 -1
-1 -1 -1 -1 -1 -1 -1 -1 157 340 513 662 789 894 986 1063 1132 1191 1242 1287 1322 1344 1348 1333 1302 1254 1196 1131 1095 1085 1168 1271 1370 1451 1511 1551 1569 1565 1540 1500 1460 1427 1406 1400 1422 1454 1486 1499 1504 1488 1463 1429 1394 1381 1397 1456 1535 1612 1673 1716 1739 1746 1739 1723 1700 1682 1669 1664 1660 1651 1639 1618 1589 1551 1513 1477 1444 1408 1368 1318 1262 1208 1156 1117 1094 1100 1111 1141 1193 1263 1341 1422 1502 1564 1605 1616 1592 1538 1450 1370 1289 1272 1273 1289 1312 1325 1347 1368 1390 1406 1421 1420 1393 1325 1216 1075 938 836 772 740 733 738 733 728 725 725 724 732 737 737 731 724 715 708 696 675 642 600 547 493 455 446 459 487 513 541 565 599 628 651 663 664 650 617 571 513 454 394 340 294 249 210 175 140 105 69 34 -1 -1 -1 -1 -1 -1 -1 -1 -1 -1 -1 -1 -1
-1 -1 -1 -1 -1 -1 -1 -1 116 307 484 650 788 903 994 1070 1135 1190 1235 1272 1296 1302 1286 1248 1189 1117 1025 958 923 1015 1139 1260 1359 1439 1495 1525 1533 1515 1471 1414 1360 1317 1286 1294 1326 1375 1412 1428 1415 1391 1349 1298 1256 1239 1288 1385 1484 1572 1637 1683 1710 1718 1713 1691 1658 1629 1617 1616 1616 1616 1611 1600 1585 1563 1536 1507 1475 1438 1390 1332 1272 1208 1158 1122 1127 1135 1149 1170 1209 1270 1343 1422 1497 1566 1609 1622 1602 1546 1472 1388 1355 1337 1348 1364 1379 1398 1414 1434 1451 1466 1474 1470 1440 1375 1280 1170 1073 1006 963 934 927 919 913 903 893 882 873 863 852 838 820 798 776 753 728 695 652 596 533 463 399 356 371 390 421 446 487 527 572 610 639 657 658 641 611 568 521 470 417 364 311 261 213 167 123 80 37 -1 -1 -1 -1 -1 -1 -1 -1 -1 -1 -1 -1 -1
-1 -1 -1 -1 -1 -1 -1 -1 61 254 438 600 746 863 954 1027 1087 1139 1183 1214 1230 1224 1187 1122 1038 933 828 760 837 985 1129 1256 1353 1428 1478 1501 1493 1460 1399 1318 1247 1192 1174 1186 1247 1309 1349 1350 1331 1285 1225 1166 1125 1133 1219 1337 1446 1533 1600 1650 1679 1690 1686 1665 1625 1582 1568 1562 1567 1569 1568 1569 1564 1552 1537 1515 1487 1449 1401 1340 1272 1205 1153 1150 1166 1187 1206 1226 1257 1303 1366 1437 1511 1573 1618 1635 1619 1571 1505 1462 1431 1429 1433 1444 1458 1472 1490 1500 1514 1525 1529 1520 1490 1433 1358 1277 1210 1160 1126 1103 1090 1078 1062 1045 1027 1003 979 952 922 891 859 828 796 766 734 698 654 603 542 474 404 343 293 311 311 350 396 453 509 563 608 642 659 657 639 610 569 520 462 398 330 261 198 141 89 41 -1 -1 -1 -1 -1 -1 -1 -1 -1 -1 -1 -1 -1 -1
-1 -1 -1 -1 -1 -1 -1 -1 -1 178 363 527 665 775 862 932 989 1040 1085 1117 1128 1109 1049 961 842 718 622 639 804 971 1130 1245 1343 1412 1457 1473 1457 1407 1329 1226 1127 1072 1056 1111 1189 1255 1283 1281 1239 1178 1111 1054 1031 1100 1206 1313 1416 1499 1564 1613 1646 1664 1664 1645 1609 1567 1525 1518 1515 1518 1522 1525 1528 1525 1518 1505 1484 1451 1405 1349 1275 1204 1179 1190 1217 1244 1273 1296 1322 1361 1409 1471 1533 1592 1633 1652 1643 1609 1568 1536 1521 1514 1518 1525 1534 1547 1556 1565 1573 1579 1580 1568 1539 1492 1435 1381 1328 1289 1257 1239 1221 1202 1181 1154 1122 1085 1043 993 941 889 843 804 771 741 712 683 649 608 560 504 443 373 315 242 245 258 316 384 456 519 577 621 650 662 657 635 597 545 479 398 306 210 124 55 0 -1 -1 -1 -1 -1 -1 -1 -1 -1 -1 -1 -1 -1 -1 -1
-1 -1 -1 -1 -1 -1 -1 -1 -1 83 263 423 550 647 721 785 842 896 946 983 992 958 881 759 624 512 490 630 802 986 1122 1239 1324 1392 1432 1446 1422 1360 1265 1145 1026 956 982 1061 1149 1209 1231 1205 1154 1077 1021 982 1029 1117 1216 1314 1395 1467 1526 1576 1612 1634 1638 1629 1604 1566 1525 1484 1475 1473 1475 1480 1484 1487 1487 1482 1469 1445 1409 1357 1296 1240 1227 1245 1276 1309 1342 1368 1393 1425 1466 1516 1569 1616 1655 1674 1672 1653 1628 1607 1596 1592 1592 1599 1606 1612 1618 1621 1626 1629 1625 1610 1584 1547 1506 1465 1425 1388 1363 1339 1321 1297 1267 1232 1187 1132 1063 986 905 831 767 724 697 676 658 642 623 600 569 529 479 420 343 269 191 200 250 326 404 473 536 591 632 657 663 648 612 555 476 373 251 120 -1 -1 -1 -1 -1 -1 -1 -1 -1 -1 -1 -1 -1 -1 -1 -1 -1 -1
-1 -1 -1 -1 -1 -1 -1 -1 -1 -1 140 287 400 478 535 590 651 714 774 819 827 784 686 552 422 376 482 641 832 992 1127 1227 1309 1370 1408 1418 1391 1322 1216 1083 958 896 937 1032 1121 1175 1182 1142 1073 1001 955 998 1066 1150 1240 1313 1384 1439 1492 1538 1573 1595 1609 1610 1597 1571 1531 1492 1456 1444 1444 1445 1445 1449 1452 1454 1450 1438 1410 1371 1322 1292 1289 1312 1341 1375 1407 1438 1463 1491 1530 1569 1609 1648 1678 1696 1699 1691 1676 1663 1654 1650 1652 1655 1659 1664 1666 1667 1667 1665 1658 1643 1619 1589 1556 1525 1493 1461 1436 1415 1389 1362 1326 1280 1221 1146 1054 942 825 717 638 593 576 573 572 570 570 566 553 531 495 446 379 292 211 161 203 277 349 420 494 559 610 645 661 653 621 558 466 344 188 16 -1 -1 -1 -1 -1 -1 -1 -1 -1 -1 -1 -1 -1 -1 -1 -1 -1 -1
-1 -1 -1 -1 -1 -1 -1 -1 -1 -1 -1 127 221 282 314 356 419 500 576 633 646 599 495 365 290 334 474 670 843 1001 1122 1220 1295 1352 1388 1393 1360 1288 1178 1047 929 876 924 1020 1102 1148 1145 1093 1014 943 958 1024 1105 1182 1252 1315 1365 1412 1455 1495 1526 1550 1568 1578 1577 1563 1538 1503 1474 1456 1438 1431 1427 1426 1425 1431 1432 1428 1413 1385 1357 1344 1356 1379 1408 1441 1471 1501 1529 1555 1583 1616 1648 1676 1697 1713 1719 1716 1709 1700 1694 1690 1691 1691 1693 1695 1695 1695 1692 1687 1678 1661 1639 1612 1584 1558 1529 1506 1484 1460 1434 1403 1362 1307 1237 1149 1033 893 739 590 476 436 430 437 456 470 488 502 509 503 482 447 391 314 220 152 172 230 297 374 451 524 585 629 655 654 624 562 464 323 152 -1 -1 -1 -1 -1 -1 -1 -1 -1 -1 -1 -1 -1 -1 -1 -1 -1 -1 -1
-1 -1 -1 -1 -1 -1 -1 -1 -1 -1 -1 -1 34 71 87 104 178 271 367 437 459 421 339 254 242 326 492 677 860 1001 1124 1222 1294 1343 1371 1369 1330 1250 1145 1032 926 874 926 1015 1091 1128 1119 1063 980 928 968 1050 1131 1200 1257 1303 1343 1379 1415 1444 1472 1493 1515 1532 1542 1544 1536 1519 1502 1485 1470 1456 1446 1435 1426 1415 1419 1420 1416 1407 1397 1402 1413 1439 1469 1500 1529 1557 1582 1605 1628 1650 1674 1694 1710 1720 1724 1726 1722 1716 1710 1707 1706 1706 1705 1703 1703 1701 1699 1693 1682 1664 1640 1614 1588 1562 1540 1520 1501 1480 1454 1423 1380 1322 1249 1150 1026 870 698 529 397 327 304 323 326 350 378 416 439 446 443 421 378 311 225 144 141 179 246 329 411 488 558 612 645 652 627 567 466 333 175 8 -1 -1 -1 -1 -1 -1 -1 -1 -1 -1 -1 -1 -1 -1 -1 -1 -1 -1
-1 -1 -1 -1 -1 -1 -1 -1 -1 -1 -1 -1 -1 -1 -1 -1 -1 91 176 248 285 275 244 227 266 371 533 711 873 1020 1135 1230 1298 1340 1356 1343 1294 1211 1105 1005 916 876 932 1017 1082 1112 1096 1041 967 928 981 1068 1148 1208 1252 1284 1311 1339 1367 1390 1408 1430 1451 1473 1492 1510 1522 1527 1526 1520 1510 1495 1478 1458 1435 1418 1408 1415 1423 1427 1436 1448 1469 1491 1518 1547 1574 1598 1619 1637 1652 1668 1682 1695 1704 1712 1715 1715 1712 1707 1703 1701 1699 1696 1692 1688 1687 1687 1685 1679 1668 1650 1626 1595 1565 1541 1517 1501 1486 1470 1450 1422 1383 1330 1256 1161 1039 894 730 568 438 371 326 271 251 244 284 314 350 373 378 369 337 285 215 149 106 135 206 288 377 458 534 595 637 651 633 576 489 372 235 89 -1 -1 -1 -1 -1 -1 -1 -1 -1 -1 -1 -1 -1 -1 -1 -1 -1 -1
-1 -1 -1 -1 -1 -1 -1 -1 -1 -1 -1 -1 -1 -1 -1 -1 -1 14 62 124 164 196 225 281 361 475 612 767 916 1045 1158 1242 1303 1335 1340 1313 1254 1163 1058 959 893 874 942 1022 1077 1093 1069 1011 955 931 1001 1085 1155 1207 1239 1258 1277 1298 1318 1331 1347 1363 1384 1405 1431 1460 1495 1523 1541 1548 1544 1530 1508 1479 1448 1421 1409 1416 1434 1451 1469 1490 1511 1535 1557 1579 1600 1619 1634 1645 1653 1660 1667 1673 1679 1683 1685 1683 1679 1677 1672 1670 1667 1661 1655 1650 1651 1654 1654 1649 1639 1623 1596 1560 1520 1486 1467 1451 1443 1436 1422 1401 1372 1328 1265 1178 1070 944 803 662 556 486 422 360 299 258 211 228 253 280 298 291 271 235 188 134 95 121 185 268 353 440 518 584 633 653 642 598 521 424 306 184 71 -1 -1 -1 -1 -1 -1 -1 -1 -1 -1 -1 -1 -1 -1 -1 -1 -1
-1 -1 -1 -1 -1 -1 -1 -1 -1 -1 -1 -1 8 47 96 128 128 122 122 122 162 222 312 404 509 619 738 857 979 1093 1187 1260 1306 1326 1317 1278 1209 1114 1007 912 859 888 956 1028 1068 1069 1034 976 922 950 1019 1099 1164 1204 1225 1236 1245 1258 1271 1280 1291 1306 1318 1333 1363 1409 1461 1508 1544 1564 1568 1556 1530 1496 1459 1428 1419 1429 1449 1473 1498 1520 1544 1564 1581 1595 1605 1614 1620 1624 1625 1627 1628 1630 1633 1636 1635 1631 1628 1624 1624 1619 1612 1603 1595 1594 1597 1601 1605 1604 1597 1582 1552 1505 1453 1411 1383 1375 1378 1375 1372 1361 1343 1314 1265 1196 1107 1002 885 771 687 615 545 473 400 315 239 181 174 201 207 204 187 165 138 109 93 131 197 271 352 433 515 583 632 658 655 618 558 473 375 269 172 96 40 -1 -1 -1 -1 -1 -1 -1 -1 -1 -1 -1 -1 -1 -1 -1
-1 -1 -1 -1 -1 -1 -1 -1 -1 24 98 148 197 244 285 309 311 310 288 287 310 379 470 577 677 780 876 973 1064 1148 1223 1276 1308 1312 1287 1234 1158 1062 957 876 850 902 973 1028 1054 1040 992 939 910 960 1036 1112 1170 1203 1217 1218 1223 1229 1233 1240 1247 1254 1261 1273 1310 1367 1429 1489 1538 1571 1583 1575 1548 1511 1472 1448 1442 1454 1474 1497 1523 1544 1563 1576 1584 1586 1586 1582 1579 1573 1570 1567 1566 1567 1570 1567 1565 1564 1559 1557 1554 1549 1538 1524 1520 1520 1524 1531 1541 1544 1545 1531 1497 1437 1366 1311 1280 1278 1279 1292 1296 1300 1296 1284 1255 1206 1139 1055 963 875 797 728 653 576 491 394 297 230 192 166 159 150 137 116 93 83 111 158 223 295 368 443 519 587 638 666 667 641 589 517 431 337 250 176 115 54 -1 -1 -1 -1 -1 -1 -1 -1 -1 -1 -1 -1 -1 -1
-1 -1 -1 -1 -1 -1 -1 -1 -1 73 180 272 344 408 456 485 501 502 505 503 534 593 673 757 847 927 1008 1080 1147 1206 1256 1290 1302 1290 1250 1185 1102 1006 911 847 866 918 983 1025 1034 1006 952 901 921 979 1055 1124 1177 1205 1212 1210 1207 1209 1210 1213 1215 1217 1218 1238 1283 1345 1409 1474 1530 1571 1592 1590 1568 1532 1498 1479 1478 1488 1503 1522 1539 1554 1564 1566 1561 1551 1537 1524 1507 1493 1487 1483 1487 1488 1487 1485 1484 1480 1478 1475 1473 1464 1448 1440 1431 1429 1435 1448 1459 1476 1483 1472 1431 1358 1267 1194 1162 1150 1165 1177 1196 1212 1231 1237 1229 1201 1155 1095 1025 953 884 813 739 661 573 473 382 320 273 237 211 198 176 144 107 85 121 183 251 322 394 464 530 595 645 675 680 659 614 551 472 384 298 222 148 75 -1 -1 -1 -1 -1 -1 -1 -1 -1 -1 -1 -1 -1 -1
-1 -1 -1 -1 -1 -1 -1 -1 -1 86 224 345 449 531 593 635 666 688 700 720 749 797 862 930 992 1058 1115 1168 1214 1250 1278 1291 1286 1258 1206 1133 1046 952 870 834 869 935 987 1015 1007 968 919 891 934 1006 1078 1139 1185 1207 1211 1207 1205 1205 1205 1202 1199 1197 1202 1227 1271 1332 1400 1465 1524 1570 1598 1606 1591 1564 1535 1521 1519 1524 1533 1540 1548 1550 1545 1530 1512 1489 1466 1438 1414 1394 1386 1388 1391 1393 1390 1388 1388 1386 1383 1386 1382 1367 1355 1340 1328 1322 1331 1349 1375 1398 1412 1405 1365 1280 1166 1071 1015 1008 1017 1046 1072 1111 1147 1175 1186 1178 1154 1115 1064 1004 942 875 805 729 642 550 472 416 373 337 308 281 250 203 146 100 127 189 265 340 414 481 546 603 653 683 690 673 632 569 491 401 311 220 134 48 -1 -1 -1 -1 -1 -1 -1 -1 -1 -1 -1 -1 -1 -1
-1 -1 -1 -1 -1 -1 -1 -1 -1 74 235 382 511 618 697 754 800 837 868 895 928 970 1019 1071 1120 1162 1200 1232 1255 1271 1277 1274 1256 1219 1158 1081 992 902 839 826 875 940 984 997 979 934 888 903 961 1034 1102 1159 1194 1211 1211 1208 1211 1214 1215 1212 1206 1198 1204 1225 1268 1323 1391 1458 1518 1568 1603 1619 1614 1596 1576 1563 1555 1554 1552 1549 1541 1525 1502 1473 1438 1407 1370 1333 1298 1282 1278 1277 1286 1284 1286 1285 1283 1283 1285 1289 1283 1271 1250 1230 1211 1209 1217 1246 1280 1310 1332 1332 1297 1211 1085 951 870 849 863 900 946 996 1052 1097 1126 1141 1136 1115 1079 1033 979 919 855 783 702 622 555 507 465 428 395 359 314 254 185 124 119 183 263 340 417 490 554 613 659 691 698 680 636 569 481 383 278 170 68 -1 -1 -1 -1 -1 -1 -1 -1 -1 -1 -1 -1 -1 -1 -1
-1 -1 -1 -1 -1 -1 -1 -1 -1 53 218 388 540 667 768 844 900 953 994 1031 1067 1103 1143 1182 1216 1241 1257 1265 1265 1260 1249 1234 1211 1170 1106 1026 939 861 814 833 882 936 968 973 947 906 881 922 989 1062 1128 1175 1206 1216 1213 1216 1223 1232 1235 1234 1226 1217 1213 1232 1267 1321 1385 1452 1514 1568 1608 1631 1634 1626 1610 1594 1581 1568 1554 1537 1512 1477 1435 1390 1349 1304 1257 1209 1175 1164 1158 1165 1169 1177 1175 1174 1174 1175 1187 1187 1187 1169 1144 1109 1097 1091 1110 1140 1177 1216 1246 1257 1232 1153 1019 868 758 717 734 770 820 884 951 1013 1060 1092 1105 1097 1076 1040 995 944 886 821 752 683 627 585 544 505 464 418 362 296 221 171 137 175 240 323 405 483 555 617 665 695 701 681 629 551 450 334 208 78 -1 -1 -1 -1 -1 -1 -1 -1 -1 -1 -1 -1 -1 -1 -1 -1
-1 -1 -1 -1 -1 -1 -1 -1 -1 16 197 366 533 682 805 900 976 1032 1088 1133 1172 1207 1237 1266 1284 1290 1282 1263 1239 1215 1193 1175 1151 1111 1051 974 892 828 804 835 883 923 942 937 913 886 881 938 1014 1088 1149 1193 1217 1224 1220 1226 1237 1248 1256 1258 1254 1243 1236 1242 1277 1323 1382 1448 1513 1567 1612 1640 1650 1645 1629 1607 1583 1558 1530 1499 1457 1406 1347 1289 1236 1182 1128 1081 1052 1037 1043 1044 1059 1064 1067 1066 1062 1073 1082 1098 1091 1070 1032 1003 980 989 1007 1032 1073 1118 1159 1182 1171 1109 988 837 721 665 656 678 722 786 863 935 996 1040 1063 1067 1055 1029 993 949 899 846 789 733 687 646 608 565 517 465 402 333 284 236 197 163 213 288 381 468 548 616 665 695 700 676 618 524 403 262 115 -1 -1 -1 -1 -1 -1 -1 -1 -1 -1 -1 -1 -1 -1 -1 -1 -1
-1 -1 -1 -1 -1 -1 -1 -1 -1 -1 159 338 505 667 807 925 1016 1089 1150 1205 1247 1283 1309 1324 1328 1312 1276 1226 1176 1137 1112 1096 1077 1046 997 929 858 805 803 832 869 900 908 898 879 863 896 954 1031 1105 1166 1208 1231 1237 1237 1241 1251 1263 1273 1279 1279 1275 1267 1270 1291 1335 1391 1452 1515 1571 1614 1644 1656 1649 1628 1597 1559 1517 1477 1431 1373 1308 1240 1172 1107 1049 998 954 926 926 923 938 950 959 961 952 958 962 992 1010 1004 970 932 900 890 890 907 936 976 1027 1076 1110 1115 1077 990 873 752 679 640 635 664 722 796 873 938 986 1014 1024 1019 1001 974 938 897 856 813 770 730 692 652 608 560 506 443 391 348 306 248 193 176 254 352 452 539 608 662 695 698 671 606 503 361 194 25 -1 -1 -1 -1 -1 -1 -1 -1 -1 -1 -1 -1 -1 -1 -1 -1 -1
-1 -1 -1 -1 -1 -1 -1 -1 -1 -1 116 296 475 636 789 920 1030 1118 1191 1250 1301 1336 1360 1366 1352 1315 1250 1167 1088 1036 1013 1007 997 980 946 896 837 796 795 817 846 869 876 864 845 859 897 961 1036 1111 1174 1219 1245 1255 1258 1261 1267 1276 1284 1293 1298 1300 1300 1302 1320 1355 1405 1461 1519 1572 1616 1644 1653 1640 1608 1562 1508 1448 1391 1334 1266 1190 1117 1043 975 916 868 830 820 816 829 834 853 862 853 854 848 877 910 939 930 895 848 821 810 812 826 853 896 947 1001 1043 1064 1053 1000 909 812 723 662 633 641 683 748 819 881 929 960 972 971 961 940 911 881 850 820 788 755 720 681 640 595 543 491 448 408 360 291 214 170 226 332 435 526 601 658 693 699 669 603 496 340 165 -1 -1 -1 -1 -1 -1 -1 -1 -1 -1 -1 -1 -1 -1 -1 -1 -1 -1
-1 -1 -1 -1 -1 -1 -1 -1 -1 -1 68 249 428 604 760 903 1026 1130 1211 1280 1334 1373 1394 1394 1368 1310 1220 1110 1004 935 917 917 922 918 902 868 828 796 783 797 820 841 853 847 836 850 888 952 1024 1101 1171 1223 1255 1272 1279 1282 1284 1287 1291 1297 1306 1314 1320 1328 1345 1376 1420 1472 1525 1574 1614 1638 1640 1617 1570 1506 1429 1350 1278 1207 1134 1062 987 915 850 796 753 735 723 733 738 758 772 772 766 758 781 807 856 889 890 852 799 766 756 758 768 790 829 881 936 987 1021 1027 998 935 853 769 696 648 632 653 705 766 825 872 902 917 920 912 895 872 849 827 806 785 761 732 699 663 622 580 538 502 459 404 326 230 172 217 313 417 512 592 654 692 700 674 611 502 362 197 52 -1 -1 -1 -1 -1 -1 -1 -1 -1 -1 -1 -1 -1 -1 -1 -1 -1
-1 -1 -1 -1 -1 -1 -1 -1 -1 -1 14 196 384 564 734 882 1018 1127 1222 1296 1355 1395 1415 1411 1378 1311 1205 1081 966 885 850 850 859 863 858 840 818 794 779 783 801 824 842 851 850 847 876 926 998 1077 1154 1217 1260 1285 1296 1299 1296 1290 1288 1290 1298 1309 1321 1336 1358 1388 1430 1478 1531 1577 1611 1628 1620 1583 1519 1431 1330 1228 1140 1060 990 926 863 806 755 714 696 682 673 671 679 695 701 705 698 706 737 792 841 874 872 837 788 749 733 729 735 753 787 834 890 943 983 998 984 943 878 803 728 664 624 628 662 714 769 815 847 863 867 859 844 824 805 790 779 766 752 731 704 674 642 608 576 543 501 443 357 257 183 209 289 393 496 583 649 692 706 684 626 536 409 275 166 114 94 98 100 91 67 29 -1 -1 -1 -1 -1 -1 -1 -1 -1 -1
-1 -1 -1 -1 -1 -1 -1 -1 -1 -1 -1 146 337 527 703 868 1003 1124 1220 1301 1363 1406 1427 1421 1386 1315 1218 1100 985 894 840 823 821 826 822 817 804 791 782 782 799 823 849 866 872 869 869 904 963 1044 1128 1198 1254 1289 1307 1310 1303 1289 1275 1271 1275 1285 1300 1321 1352 1388 1432 1483 1533 1577 1607 1613 1592 1538 1454 1342 1214 1092 991 915 847 808 778 742 729 734 727 718 698 666 657 658 670 668 683 715 754 806 851 875 871 840 799 760 734 724 725 739 767 807 857 908 947 965 962 935 887 821 747 676 622 601 622 668 718 763 795 811 815 807 791 770 753 746 740 736 729 715 696 674 650 626 602 573 534 477 395 295 220 193 270 375 480 573 647 693 713 700 653 575 476 372 298 253 232 220 206 182 142 88 17 -1 -1 -1 -1 -1 -1 -1 -1 -1
-1 -1 -1 -1 -1 -1 -1 -1 -1 -1 -1 101 297 493 680 845 991 1109 1215 1295 1362 1408 1431 1427 1393 1329 1242 1138 1034 940 874 844 826 810 805 799 796 791 788 792 808 834 863 887 898 900 896 897 935 1011 1093 1175 1239 1287 1311 1315 1301 1279 1255 1239 1239 1247 1264 1291 1330 1374 1423 1478 1531 1574 1598 1595 1558 1485 1376 1243 1096 962 876 804 779 766 766 793 805 810 809 792 757 721 697 689 680 701 725 758 794 833 867 884 875 849 812 776 749 733 728 736 757 789 832 875 912 931 934 916 878 823 756 685 623 585 593 627 671 713 745 765 772 766 746 717 704 695 699 700 696 688 676 660 644 629 614 593 561 512 434 336 244 219 268 366 475 570 647 698 723 717 682 620 542 466 409 369 340 314 286 246 192 122 39 -1 -1 -1 -1 -1 -1 -1 -1 -1
-1 -1 -1 -1 -1 -1 -1 -1 -1 -1 -1 62 262 458 652 823 971 1100 1202 1288 1355 1406 1431 1429 1397 1342 1265 1182 1090 1003 935 891 857 826 805 797 793 791 794 801 818 842 872 898 920 932 931 934 944 986 1064 1145 1222 1278 1309 1313 1293 1261 1229 1207 1199 1206 1224 1256 1298 1349 1406 1465 1522 1564 1584 1571 1518 1423 1291 1130 980 869 813 832 842 854 874 897 911 911 898 868 831 794 769 752 752 764 788 813 840 864 885 893 881 853 820 786 759 740 731 733 747 772 806 846 879 898 902 891 861 814 755 690 625 578 572 591 628 669 703 727 738 731 714 686 655 653 656 659 661 655 649 638 627 620 615 604 582 539 472 379 306 281 308 386 477 573 648 703 733 733 707 658 598 541 491 449 412 377 334 280 213 132 36 -1 -1 -1 -1 -1 -1 -1 -1 -1
-1 -1 -1 -1 -1 -1 -1 -1 -1 -1 -1 26 225 434 623 802 956 1085 1195 1279 1351 1401 1430 1431 1406 1356 1294 1224 1148 1071 1004 950 902 858 825 806 794 790 792 798 812 833 859 890 920 947 967 976 984 1000 1046 1124 1202 1265 1301 1304 1278 1235 1198 1174 1165 1170 1189 1220 1265 1319 1381 1446 1505 1549 1565 1541 1470 1354 1198 1028 881 838 890 928 970 998 1013 1020 1019 1006 981 943 902 868 845 832 830 836 849 863 880 895 903 899 880 849 813 780 753 734 722 720 728 750 783 820 850 866 872 862 838 797 747 688 630 583 557 566 598 637 674 701 712 709 691 665 640 620 621 626 624 626 620 612 606 605 608 606 594 562 504 438 390 364 375 423 504 581 657 710 742 746 724 683 635 587 539 492 449 403 348 281 202 110 6 -1 -1 -1 -1 -1 -1 -1 -1 -1
-1 -1 -1 -1 -1 -1 -1 -1 -1 -1 -1 -1 202 404 610 786 944 1076 1186 1278 1349 1400 1429 1432 1413 1373 1321 1262 1195 1127 1064 1007 947 893 851 819 795 781 774 776 785 800 823 855 896 942 980 1012 1031 1044 1067 1119 1190 1254 1291 1291 1258 1213 1173 1155 1149 1152 1164 1195 1232 1287 1352 1422 1486 1530 1542 1505 1416 1276 1121 954 892 940 1000 1061 1106 1133 1142 1135 1117 1091 1054 1012 971 940 919 906 898 898 899 904 910 915 912 899 872 836 795 758 728 708 696 692 701 727 764 801 826 842 843 832 809 774 731 683 635 589 556 556 579 617 653 677 690 688 675 656 635 618 604 600 603 599 599 592 589 593 598 604 601 581 543 503 470 452 452 484 541 612 673 723 748 750 728 690 643 595 545 494 442 388 325 249 160 59 -1 -1 -1 -1 -1 -1 -1 -1 -1 -1
-1 -1 -1 -1 -1 -1 -1 -1 -1 -1 -1 -1 183 403 592 779 935 1070 1180 1273 1345 1397 1425 1430 1415 1383 1339 1286 1229 1168 1108 1048 985 926 873 828 788 758 742 737 740 752 770 804 852 913 976 1028 1068 1096 1116 1148 1201 1253 1285 1279 1241 1196 1175 1161 1160 1160 1169 1176 1205 1252 1319 1394 1463 1509 1516 1468 1358 1219 1060 1011 1023 1069 1139 1192 1231 1250 1247 1231 1202 1164 1118 1072 1033 1004 983 967 954 943 937 932 928 922 911 891 861 823 778 730 688 662 649 651 666 711 752 786 811 822 819 803 779 746 711 674 635 596 565 550 570 604 635 660 670 667 658 646 632 619 610 602 595 593 591 591 589 587 591 598 603 598 583 561 544 529 533 551 596 651 700 736 748 740 711 667 615 560 505 449 392 330 263 185 93 -1 -1 -1 -1 -1 -1 -1 -1 -1 -1 -1
-1 -1 -1 -1 -1 -1 -1 -1 -1 -1 -1 11 203 396 598 769 929 1064 1178 1268 1340 1388 1416 1421 1408 1379 1340 1292 1238 1183 1125 1067 1005 944 884 829 775 737 710 705 705 709 724 749 800 871 955 1028 1090 1136 1172 1199 1234 1271 1293 1281 1243 1214 1200 1192 1190 1192 1190 1191 1193 1220 1284 1364 1437 1488 1493 1436 1331 1188 1126 1125 1163 1219 1269 1313 1340 1347 1334 1305 1266 1220 1169 1120 1081 1050 1026 1005 987 971 958 944 930 914 898 877 848 812 770 717 652 600 590 598 650 697 739 775 798 808 801 779 749 716 683 654 627 597 565 549 563 592 620 641 651 649 637 627 620 615 612 610 608 607 606 604 598 592 589 594 604 611 612 609 602 600 603 621 652 692 728 744 739 710 664 607 542 477 413 355 296 235 168 94 4 -1 -1 -1 -1 -1 -1 -1 -1 -1 -1 -1
-1 -1 -1 -1 -1 -1 -1 -1 -1 -1 -1 66 243 423 603 781 931 1063 1172 1264 1332 1379 1404 1408 1393 1364 1323 1273 1219 1165 1110 1055 1000 940 878 815 764 719 711 712 716 710 703 718 763 838 922 1013 1093 1163 1214 1255 1283 1311 1321 1313 1282 1265 1249 1244 1236 1235 1233 1230 1226 1229 1266 1341 1420 1474 1482 1432 1331 1262 1244 1259 1303 1348 1390 1419 1433 1426 1398 1356 1307 1252 1196 1145 1103 1068 1041 1017 997 977 958 937 914 891 871 852 829 800 764 714 647 562 527 569 632 685 728 762 785 794 787 763 728 686 651 628 610 588 562 546 557 582 606 625 633 629 616 601 596 596 600 611 621 627 627 623 615 600 591 591 601 615 629 641 650 656 666 680 704 730 748 743 713 656 582 503 422 341 275 218 162 107 47 -1 -1 -1 -1 -1 -1 -1 -1 -1 -1 -1 -1 -1
-1 -1 -1 -1 -1 -1 -1 -1 -1 -1 -1 128 299 471 632 793 942 1065 1172 1255 1324 1368 1390 1391 1374 1340 1292 1235 1173 1116 1062 1014 966 914 852 796 745 739 739 749 752 744 730 718 741 805 894 986 1087 1169 1242 1295 1336 1358 1373 1364 1347 1324 1318 1307 1299 1292 1293 1290 1285 1284 1296 1344 1418 1475 1492 1456 1401 1366 1370 1396 1424 1463 1491 1507 1505 1481 1438 1382 1318 1250 1188 1133 1088 1051 1022 998 979 959 936 911 882 853 831 815 802 784 756 716 657 579 499 536 596 661 707 742 764 775 771 752 717 671 626 600 588 572 556 543 554 575 595 610 615 609 594 576 562 564 579 600 620 636 643 641 630 613 595 589 595 613 637 661 682 700 715 731 747 761 758 730 668 575 460 350 248 164 97 44 -1 -1 -1 -1 -1 -1 -1 -1 -1 -1 -1 -1 -1 -1 -1 -1
-1 -1 -1 -1 -1 -1 -1 -1 -1 -1 4 182 355 519 673 817 951 1073 1172 1255 1315 1356 1374 1372 1352 1315 1262 1193 1117 1045 987 944 909 865 821 771 767 770 785 795 802 801 785 762 755 792 869 972 1071 1176 1257 1328 1377 1413 1430 1432 1416 1402 1386 1381 1373 1368 1363 1367 1363 1361 1368 1393 1443 1496 1521 1514 1486 1472 1483 1507 1534 1555 1574 1575 1555 1514 1451 1375 1289 1205 1133 1077 1031 996 969 949 932 914 892 864 832 800 778 768 765 760 745 717 674 602 520 469 539 615 670 707 733 747 750 738 712 673 631 590 571 563 550 552 559 574 588 595 595 588 572 550 532 532 551 578 607 632 650 655 646 626 604 589 591 608 635 670 703 731 752 770 782 783 761 704 607 470 311 158 45 -1 -1 -1 -1 -1 -1 -1 -1 -1 -1 -1 -1 -1 -1 -1 -1 -1 -1 -1
-1 -1 -1 -1 -1 -1 -1 -1 -1 -1 46 211 393 560 711 845 966 1080 1179 1252 1308 1341 1355 1352 1330 1290 1235 1161 1072 980 906 865 838 819 790 802 806 821 834 852 861 865 859 840 818 820 877 968 1077 1178 1276 1354 1416 1463 1491 1500 1494 1476 1464 1454 1456 1451 1450 1446 1450 1450 1454 1472 1501 1541 1570 1579 1575 1566 1577 1600 1622 1636 1637 1624 1584 1519 1433 1326 1212 1107 1028 972 935 907 885 868 861 847 828 799 763 731 713 711 721 728 726 712 679 618 527 434 470 540 609 655 684 705 716 716 705 680 645 611 584 565 567 567 573 578 580 579 573 563 547 528 512 512 528 551 583 617 646 660 658 640 616 597 589 603 634 675 716 752 780 802 811 800 761 680 549 372 165 -1 -1 -1 -1 -1 -1 -1 -1 -1 -1 -1 -1 -1 -1 -1 -1 -1 -1 -1 -1 -1
-1 -1 -1 -1 -1 -1 -1 -1 -1 -1 65 243 412 586 740 872 990 1092 1180 1251 1298 1325 1334 1327 1306 1267 1214 1143 1054 953 867 817 798 796 825 845 868 879 893 908 924 933 935 932 914 902 929 999 1094 1198 1295 1383 1455 1511 1549 1567 1567 1558 1542 1540 1535 1537 1538 1540 1538 1541 1546 1557 1576 1603 1629 1649 1652 1654 1659 1677 1694 1698 1688 1655 1592 1502 1381 1237 1085 952 867 824 803 783 768 764 764 764 745 715 680 646 633 646 669 688 698 693 669 617 527 434 381 452 527 580 615 642 665 682 688 680 662 637 613 597 590 592 591 586 575 560 551 537 525 512 514 518 521 535 564 601 636 661 669 656 632 609 599 608 638 679 725 768 803 827 834 817 765 668 518 315 116 -1 -1 -1 -1 -1 -1 -1 -1 -1 -1 -1 -1 -1 -1 -1 -1 -1 -1 -1 -1 -1
-1 -1 -1 -1 -1 -1 -1 -1 -1 -1 84 261 437 602 758 895 1008 1106 1185 1246 1286 1306 1310 1299 1279 1245 1198 1138 1063 977 899 852 836 850 877 908 927 942 953 967 982 995 1009 1016 1016 1011 1022 1066 1139 1235 1329 1418 1495 1557 1601 1629 1638 1631 1626 1620 1621 1623 1623 1629 1628 1627 1634 1645 1656 1674 1697 1713 1723 1726 1735 1744 1752 1747 1722 1671 1592 1471 1315 1133 950 786 682 665 647 626 616 625 645 658 647 611 568 539 542 571 610 641 659 662 647 601 519 410 333 362 433 484 524 559 596 632 660 672 671 660 646 633 624 618 610 595 574 550 527 516 506 514 525 536 543 547 562 592 630 663 680 675 655 634 626 630 654 693 735 781 820 846 853 834 778 674 523 357 198 110 76 55 27 2 -1 -1 -1 -1 -1 -1 -1 -1 -1 -1 -1 -1 -1 -1 -1 -1
-1 -1 -1 -1 -1 -1 -1 -1 -1 -1 111 285 461 623 774 908 1022 1113 1186 1240 1273 1284 1280 1267 1245 1219 1183 1139 1083 1019 961 927 914 924 946 967 985 996 1005 1017 1032 1049 1067 1087 1102 1114 1130 1160 1215 1289 1378 1460 1538 1601 1651 1684 1702 1706 1701 1703 1702 1705 1710 1709 1712 1715 1717 1726 1736 1750 1764 1779 1785 1791 1797 1803 1799 1783 1746 1683 1587 1450 1273 1084 886 720 617 572 549 524 506 497 532 541 524 493 436 412 439 486 541 581 610 622 614 577 500 391 297 293 330 374 414 461 515 570 618 654 672 676 672 663 654 642 625 601 572 541 516 500 503 518 540 560 573 583 590 609 640 673 695 700 689 675 668 672 685 714 755 796 835 864 872 853 800 706 584 456 358 299 267 237 203 162 123 79 33 -1 -1 -1 -1 -1 -1 -1 -1 -1 -1 -1 -1 -1
-1 -1 -1 -1 -1 -1 -1 -1 -1 1 162 325 487 647 791 921 1029 1117 1184 1231 1256 1262 1248 1228 1206 1184 1160 1132 1097 1056 1020 993 985 989 1001 1015 1027 1036 1044 1052 1064 1082 1105 1133 1165 1194 1223 1258 1303 1365 1433 1509 1579 1643 1694 1735 1759 1770 1774 1773 1779 1784 1786 1790 1789 1794 1799 1800 1809 1820 1830 1839 1844 1847 1848 1850 1838 1813 1765 1694 1589 1451 1298 1124 941 786 705 667 636 609 584 554 478 448 455 393 366 349 352 411 460 514 548 570 574 548 484 383 293 236 241 266 308 364 433 508 576 629 662 678 684 682 673 658 636 605 569 534 508 496 502 524 552 582 606 622 635 650 670 698 719 731 730 722 719 720 731 752 784 821 855 881 891 876 832 759 666 584 520 474 437 401 359 312 258 203 141 74 2 -1 -1 -1 -1 -1 -1 -1 -1 -1 -1 -1
-1 -1 -1 -1 -1 -1 -1 -1 -1 63 221 379 529 676 814 931 1034 1115 1177 1218 1239 1237 1218 1188 1161 1143 1129 1116 1098 1077 1056 1040 1034 1035 1041 1048 1054 1060 1064 1068 1075 1090 1119 1156 1202 1247 1292 1338 1386 1438 1499 1560 1626 1682 1735 1777 1808 1826 1834 1840 1846 1852 1856 1857 1863 1865 1867 1870 1873 1880 1889 1896 1899 1897 1894 1886 1870 1838 1785 1710 1608 1492 1361 1214 1057 926 860 822 784 748 714 658 592 527 446 456 436 413 397 355 398 431 476 507 523 514 470 394 304 229 192 196 230 291 372 457 535 596 639 666 681 685 681 668 643 610 569 533 507 500 511 536 568 602 634 660 678 694 712 732 753 768 772 771 768 772 780 797 820 849 877 901 913 903 871 816 753 698 653 614 578 538 490 434 370 298 218 128 29 -1 -1 -1 -1 -1 -1 -1 -1 -1 -1 -1
-1 -1 -1 -1 -1 -1 -1 -1 -1 120 282 434 581 714 835 945 1034 1108 1164 1201 1218 1216 1193 1157 1122 1102 1095 1092 1087 1078 1070 1062 1059 1059 1062 1067 1069 1070 1068 1068 1071 1084 1115 1162 1215 1276 1334 1392 1447 1501 1558 1616 1671 1727 1773 1815 1847 1871 1884 1893 1902 1909 1913 1916 1920 1924 1926 1927 1930 1934 1939 1944 1945 1941 1931 1919 1896 1859 1809 1737 1645 1544 1433 1312 1183 1077 1010 961 912 861 814 763 705 635 586 551 540 512 462 409 338 365 391 432 461 471 450 401 328 249 192 172 191 248 328 413 491 554 602 637 661 674 678 668 647 615 577 539 517 517 533 556 588 623 659 692 717 736 753 771 789 806 813 814 813 817 826 840 859 879 902 920 932 929 907 870 827 791 755 722 685 645 591 528 452 366 271 161 39 -1 -1 -1 -1 -1 -1 -1 -1 -1 -1 -1
-1 -1 -1 -1 -1 -1 -1 -1 20 179 335 488 626 750 860 953 1032 1096 1145 1178 1195 1194 1173 1136 1100 1075 1067 1067 1067 1067 1066 1065 1064 1065 1070 1074 1075 1071 1065 1062 1064 1079 1111 1158 1221 1287 1356 1423 1487 1548 1605 1662 1717 1765 1810 1845 1878 1903 1921 1933 1941 1950 1955 1959 1962 1966 1968 1971 1973 1976 1978 1981 1980 1974 1962 1946 1919 1882 1833 1768 1687 1599 1505 1403 1301 1211 1138 1073 1007 942 883 827 772 720 673 638 609 575 521 441 365 293 316 352 394 419 422 397 347 280 217 179 183 223 289 365 435 494 545 590 624 649 661 662 648 623 591 560 542 546 565 590 618 653 688 722 750 772 788 806 821 834 843 849 850 854 863 876 890 906 923 938 949 948 935 912 884 857 830 799 765 720 664 595 512 419 311 189 52 -1 -1 -1 -1 -1 -1 -1 -1 -1 -1 -1
-1 -1 -1 -1 -1 -1 -1 -1 73 228 379 525 660 774 873 954 1022 1075 1117 1150 1170 1174 1159 1131 1097 1071 1054 1051 1050 1052 1055 1056 1058 1061 1069 1076 1076 1070 1063 1062 1066 1082 1115 1165 1226 1297 1370 1442 1515 1580 1640 1696 1750 1796 1836 1870 1899 1922 1941 1954 1964 1972 1977 1982 1985 1988 1992 1995 1999 2000 2001 2001 1999 1993 1982 1963 1938 1902 1856 1798 1728 1651 1568 1484 1397 1313 1233 1155 1075 993 918 851 794 746 705 672 639 598 542 465 367 291 244 280 326 364 384 381 354 305 246 202 184 203 249 308 364 420 475 527 570 605 631 645 647 634 611 588 583 589 605 629 657 684 717 748 777 798 815 828 840 850 859 866 870 875 884 896 909 921 934 945 953 956 950 938 920 900 878 852 816 770 713 643 558 463 350 226 91 -1 -1 -1 -1 -1 -1 -1 -1 -1 -1 -1
-1 -1 -1 -1 -1 -1 -1 -1 107 262 407 545 669 777 864 934 990 1037 1077 1112 1140 1154 1149 1131 1106 1079 1058 1043 1039 1039 1043 1046 1050 1056 1068 1076 1076 1072 1068 1072 1081 1099 1132 1184 1245 1316 1389 1461 1534 1602 1663 1718 1767 1811 1848 1879 1904 1925 1941 1954 1965 1972 1977 1979 1982 1986 1991 1997 2001 2002 2001 2000 1998 1994 1985 1970 1946 1914 1871 1819 1760 1692 1620 1543 1461 1380 1295 1204 1109 1010 912 828 764 719 685 658 626 583 526 455 370 277 216 222 268 310 342 356 347 316 270 222 190 183 205 242 285 335 388 443 494 544 587 620 639 643 635 624 624 632 648 668 693 718 744 770 793 811 823 832 838 845 853 862 870 878 888 898 909 919 928 937 944 949 950 945 935 921 903 879 844 802 745 676 597 501 392 268 141 11 -1 -1 -1 -1 -1 -1 -1 -1 -1 -1
-1 -1 -1 -1 -1 -1 -1 -1 113 264 405 533 646 743 820 880 930 974 1020 1065 1105 1130 1139 1131 1113 1091 1067 1050 1038 1037 1038 1041 1046 1055 1068 1078 1081 1081 1083 1089 1105 1131 1164 1212 1274 1342 1412 1483 1552 1618 1676 1728 1771 1808 1840 1867 1889 1906 1921 1933 1943 1949 1951 1952 1954 1958 1965 1973 1979 1980 1979 1977 1977 1976 1970 1958 1938 1910 1872 1827 1773 1713 1647 1574 1499 1417 1326 1226 1112 992 867 758 683 640 619 600 574 534 482 421 348 266 198 196 226 267 302 326 332 319 284 241 197 167 163 177 205 242 286 342 404 472 536 588 625 647 656 659 662 671 686 703 722 742 761 780 795 805 809 810 812 816 825 836 847 859 868 880 888 896 903 910 917 924 930 932 929 920 907 886 857 816 765 701 625 534 428 314 193 67 -1 -1 -1 -1 -1 -1 -1 -1 -1 -1
-1 -1 -1 -1 -1 -1 -1 -1 79 225 356 472 574 657 725 784 835 890 951 1014 1067 1106 1125 1127 1115 1096 1074 1056 1043 1038 1038 1041 1047 1055 1066 1077 1086 1095 1103 1115 1134 1167 1207 1252 1309 1372 1438 1501 1564 1624 1676 1720 1756 1787 1812 1835 1852 1866 1878 1889 1898 1901 1900 1899 1900 1905 1916 1927 1933 1934 1935 1935 1935 1938 1938 1931 1915 1892 1859 1816 1767 1713 1652 1586 1511 1429 1337 1226 1101 955 811 667 568 531 515 509 489 458 416 366 308 243 199 177 207 237 269 296 313 311 290 253 206 165 134 128 137 157 193 250 324 412 491 556 609 645 667 680 689 698 710 723 737 751 764 774 779 777 772 764 760 767 776 790 805 819 832 841 850 854 857 865 871 884 892 900 902 900 891 876 852 819 773 717 647 564 469 362 245 122 -1 -1 -1 -1 -1 -1 -1 -1 -1 -1
-1 -1 -1 -1 -1 -1 -1 -1 2 128 241 342 430 509 581 651 719 797 887 970 1038 1083 1108 1115 1107 1091 1070 1053 1040 1033 1029 1031 1035 1044 1055 1070 1088 1107 1124 1144 1168 1202 1244 1292 1342 1399 1457 1515 1568 1616 1657 1692 1721 1744 1764 1781 1797 1807 1815 1821 1829 1829 1826 1822 1824 1831 1846 1859 1865 1865 1870 1872 1874 1884 1890 1886 1878 1858 1829 1789 1743 1692 1637 1574 1503 1422 1328 1217 1081 938 771 617 494 423 412 399 391 365 340 304 258 219 187 193 203 224 246 269 289 296 288 259 217 169 130 104 98 108 140 201 286 377 463 538 595 639 669 688 699 707 716 725 734 740 745 746 739 723 706 692 689 695 712 729 747 763 777 786 791 793 796 797 812 825 841 852 861 863 860 851 833 807 770 721 660 589 504 406 296 178 48 -1 -1 -1 -1 -1 -1 -1 -1 -1
-1 -1 -1 -1 -1 -1 -1 -1 -1 -1 57 139 225 314 414 516 621 732 844 942 1013 1062 1088 1095 1088 1072 1051 1032 1017 1007 1000 998 1001 1010 1026 1055 1084 1113 1140 1167 1196 1230 1272 1318 1366 1415 1464 1512 1552 1587 1616 1642 1662 1679 1694 1709 1719 1726 1730 1732 1737 1733 1728 1722 1724 1738 1759 1773 1776 1780 1783 1786 1801 1814 1822 1829 1824 1809 1784 1746 1702 1652 1600 1542 1475 1398 1310 1200 1081 935 788 636 501 396 340 334 296 294 275 253 221 207 215 214 219 221 228 241 258 275 278 261 224 179 134 104 87 94 128 191 276 365 454 530 586 630 659 676 685 692 698 703 706 706 702 690 669 641 611 601 597 611 630 654 674 692 706 713 717 717 712 723 734 757 774 794 806 813 816 813 802 782 751 711 662 600 528 443 342 229 101 -1 -1 -1 -1 -1 -1 -1 -1 -1
-1 -1 -1 -1 -1 -1 -1 -1 -1 -1 -1 -1 22 148 289 439 580 710 825 920 993 1037 1059 1062 1053 1034 1010 988 970 955 942 937 934 950 983 1025 1067 1108 1145 1178 1212 1248 1286 1327 1370 1411 1450 1484 1511 1531 1551 1566 1580 1592 1603 1612 1621 1622 1622 1625 1621 1614 1605 1600 1604 1632 1655 1667 1672 1669 1668 1686 1707 1726 1745 1754 1751 1747 1726 1693 1648 1599 1547 1491 1430 1361 1282 1192 1083 965 832 700 570 458 387 323 311 273 256 245 252 251 252 249 237 221 206 207 221 246 262 255 226 183 142 109 92 99 135 198 280 370 450 521 575 611 635 645 650 653 656 656 654 647 634 608 572 530 501 485 495 508 536 562 589 608 618 625 627 620 627 629 650 670 700 723 741 751 760 762 757 743 719 686 647 599 540 464 374 267 141 5 -1 -1 -1 -1 -1 -1 -1 -1
-1 -1 -1 -1 -1 -1 -1 -1 -1 -1 -1 -1 -1 80 256 425 575 710 820 906 967 1004 1015 1012 997 974 945 916 893 870 852 835 838 865 918 979 1039 1090 1134 1173 1209 1244 1281 1317 1351 1383 1411 1430 1440 1447 1457 1468 1474 1483 1489 1495 1496 1496 1497 1490 1477 1466 1457 1455 1475 1508 1530 1542 1541 1533 1536 1562 1591 1627 1651 1658 1667 1665 1652 1621 1580 1528 1477 1424 1372 1314 1251 1176 1091 991 884 773 662 562 480 425 377 349 320 314 313 310 300 281 253 216 179 162 179 214 239 241 217 181 140 110 96 110 149 210 288 372 448 509 551 578 590 595 595 596 591 588 579 566 537 498 451 402 364 362 371 401 426 464 490 508 517 521 518 521 515 532 545 576 610 641 664 683 693 699 697 686 666 641 614 582 536 473 392 290 172 37 -1 -1 -1 -1 -1 -1 -1 -1
-1 -1 -1 -1 -1 -1 -1 -1 -1 -1 -1 -1 -1 108 281 446 594 718 818 891 934 954 956 940 916 884 849 816 782 751 720 704 715 767 848 929 999 1056 1104 1146 1183 1217 1250 1279 1305 1325 1341 1344 1339 1339 1340 1342 1348 1350 1354 1349 1354 1349 1342 1324 1307 1292 1282 1299 1334 1367 1388 1386 1379 1369 1389 1416 1463 1507 1536 1556 1560 1568 1559 1532 1489 1440 1389 1342 1296 1253 1203 1147 1082 1006 923 833 744 659 585 525 481 442 414 394 379 362 337 302 254 199 143 113 133 178 210 218 199 162 124 95 89 111 157 221 291 366 434 482 512 524 524 523 520 514 514 502 485 458 420 368 309 255 221 217 251 276 322 359 386 397 404 400 401 392 406 408 437 468 504 547 581 602 616 621 621 609 592 577 565 546 515 465 395 305 194 71 -1 -1 -1 -1 -1 -1 -1 -1
-1 -1 -1 -1 -1 -1 -1 -1 -1 -1 -1 -1 14 173 335 486 617 724 805 859 885 889 875 848 809 767 724 679 636 593 555 546 587 684 787 878 950 1006 1053 1094 1130 1160 1187 1209 1224 1236 1234 1228 1213 1202 1201 1198 1196 1196 1190 1193 1189 1186 1162 1132 1113 1095 1098 1136 1172 1204 1214 1207 1182 1189 1214 1265 1321 1370 1409 1427 1446 1450 1445 1417 1376 1327 1281 1238 1204 1169 1134 1095 1049 996 933 865 793 721 657 605 557 518 482 452 423 391 351 299 235 162 93 60 90 141 177 184 164 125 85 59 62 97 151 218 287 350 402 436 451 448 442 431 420 423 415 401 373 336 285 224 156 95 66 83 115 167 212 251 270 284 276 278 263 268 264 282 305 345 397 448 489 511 522 528 523 512 498 495 494 492 475 440 385 308 210 95 -1 -1 -1 -1 -1 -1 -1 -1
-1 -1 -1 -1 -1 -1 -1 -1 -1 -1 -1 -1 114 253 393 523 632 716 772 804 810 797 770 728 676 624 569 512 455 399 373 387 500 626 736 822 888 939 981 1015 1046 1072 1091 1104 1110 1105 1097 1075 1063 1049 1032 1025 1016 1017 1014 1011 1015 998 964 925 893 884 914 948 994 1016 1015 987 968 983 1031 1098 1165 1220 1262 1292 1309 1319 1308 1280 1238 1193 1149 1114 1088 1063 1040 1016 989 951 905 852 797 740 685 637 593 551 510 472 431 386 333 268 188 100 27 1 45 101 137 142 116 69 23 -1 14 63 127 198 264 318 352 370 367 356 336 317 315 310 305 281 245 198 138 68 -1 -1 -1 -1 1 55 104 134 155 155 154 136 133 118 118 139 166 221 283 341 386 407 416 414 404 392 390 395 412 421 422 400 358 294 209 102 -1 -1 -1 -1 -1 -1 -1 -1
-1 -1 -1 -1 -1 -1 -1 -1 -1 -1 14 106 209 328 440 542 626 683 713 720 707 676 635 584 523 458 388 319 249 208 190 310 452 581 682 754 809 850 881 911 934 951 962 966 957 947 926 914 889 859 845 823 820 814 820 820 815 793 752 699 662 672 698 751 791 803 778 758 742 762 839 917 994 1058 1100 1140 1156 1164 1147 1118 1078 1032 994 965 945 930 921 912 896 869 835 797 754 709 662 618 577 535 492 446 397 340 277 202 114 20 -1 -1 1 59 90 87 55 -1 -1 -1 -1 16 90 163 223 263 283 280 266 240 211 200 194 191 178 149 107 51 -1 -1 -1 -1 -1 -1 -1 -1 -1 16 23 34 19 8 -1 -1 -1 -1 38 98 164 227 270 293 296 282 263 255 261 287 314 341 351 343 314 260 187 92 -1 -1 -1 -1 -1 -1 -1 -1
