-1 -1 -1 -1 -1 -1 -1 -1 -1 -1 -1 -1 -1 -1 -1 -1 -1 -1 -1 -1 -1 -1 -1 -1 -1 -1 -1 -1 -1 -1 -1 -1 -1 -1 -1 -1 -1 -1 -1 -1 -1 -1 -1 83 140 166 163 133 82 8 -1 -1 -1 -1 -1 -1 -1 86 159 170 142 91 36 -1 0 26 62 122 197 265 308 331 330 324 297 300 308 287 238 150 29 -1 -1 -1 -1 -1 38 40 -1 -1 -1 -1 -1 -1 -1 38 53 27 -1 -1 -1 -1 -1 -1 -1 -1 -1 -1 -1 -1 -1 -1 -1 -1 -1 -1 -1 -1 -1 -1 -1 -1 -1 -1 -1 -1 -1 -1 -1 -1 -1 -1 -1 -1 -1 -1 -1 -1 -1 -1 -1 -1 -1 -1 -1 -1 -1 -1 -1 -1 -1 -1 -1 -1 -1 -1 -1 -1 -1 -1 -1 -1 -1 -1 -1 -1 -1 -1 -1 -1 -1 -1 -1 -1 -1 -1 -1 -1 -1 -1
-1 -1 -1 -1 -1 -1 -1 -1 -1 -1 -1 -1 -1 -1 -1 -1 -1 -1 -1 -1 -1 -1 -1 35 58 52 26 -1 -1 -1 -1 -1 -1 -1 -1 -1 -1 -1 -1 -1 -1 -1 11 125 224 290 323 321 293 234 143 16 -1 -1 -1 -1 -1 156 271 330 329 294 251 218 214 242 275 320 376 440 489 514 521 508 496 490 494 477 429 353 239 69 -1 -1 -1 -1 117 137 52 -1 -1 -1 -1 -1 60 142 178 157 88 -1 -1 -1 -1 -1 -1 -1 -1 -1 -1 -1 -1 -1 24 40 51 47 42 15 -1 -1 -1 -1 -1 -1 -1 -1 -1 -1 -1 -1 -1 -1 -1 -1 -1 -1 -1 -1 -1 -1 -1 -1 -1 -1 -1 -1 -1 -1 -1 -1 9 36 38 28 13 -1 -1 -1 -1 -1 -1 -1 -1 -1 -1 -1 -1 -1 -1 -1 -1 -1 -1 -1 -1 -1 -1 -1 -1 -1
-1 -1 -1 -1 -1 -1 -1 -1 -1 -1 -1 -1 -1 -1 -1 -1 -1 -1 -1 -1 -1 -1 1 97 159 188 185 161 134 100 82 86 100 106 126 122 105 53 -1 -1 -1 -1 -1 125 262 371 441 476 477 443 365 252 93 -1 -1 -1 -1 181 343 443 486 482 451 429 426 451 485 510 553 602 653 684 691 681 666 664 660 639 596 527 417 248 16 -1 -1 65 200 230 151 -1 -1 -1 -1 -1 131 230 272 252 172 45 -1 -1 -1 -1 -1 10 70 101 103 99 104 119 143 162 170 182 177 164 127 64 -1 -1 -1 -1 -1 -1 -1 48 72 97 112 118 120 104 65 -1 -1 -1 -1 -1 -1 -1 -1 -1 -1 -1 -1 -1 -1 -1 83 130 145 134 110 70 14 -1 -1 -1 -1 -1 -1 -1 -1 -1 -1 -1 -1 -1 -1 -1 -1 -1 -1 -1 -1 -1 -1 -1
-1 -1 -1 -1 -1 -1 -1 -1 -1 -1 -1 -1 -1 -1 -1 -1 -1 -1 -1 -1 -1 -1 -1 106 210 277 310 311 293 274 251 246 248 266 271 285 269 230 136 -1 -1 -1 -1 89 272 416 525 593 623 613 566 476 344 157 -1 -1 -1 173 380 524 603 638 635 617 623 642 664 693 717 761 799 830 843 834 818 813 803 777 734 662 550 369 118 -1 -1 165 294 324 241 69 -1 -1 -1 41 203 303 338 305 210 70 -1 -1 -1 -1 1 120 191 223 235 232 224 232 247 264 278 284 296 287 259 196 86 -1 -1 -1 -1 -1 51 137 188 214 238 251 253 234 185 95 -1 -1 -1 -1 -1 -1 5 4 -1 -1 -1 -1 -1 37 146 208 230 218 181 125 55 -1 -1 -1 -1 -1 -1 -1 -1 -1 -1 -1 -1 -1 -1 -1 -1 -1 -1 -1 -1 -1 -1 -1
-1 -1 -1 -1 -1 -1 -1 -1 -1 -1 -1 -1 -1 -1 -1 -1 -1 -1 -1 -1 -1 -1 -1 66 200 312 386 421 428 419 412 395 396 398 416 419 420 382 288 116 -1 -1 -1 62 267 450 585 679 732 752 732 674 569 414 199 5 -1 168 388 574 695 755 782 789 787 802 823 838 871 901 934 956 967 961 950 937 918 885 833 756 633 442 189 -1 98 280 396 406 314 136 -1 -1 -1 116 275 363 373 313 197 35 -1 -1 -1 -1 122 234 305 338 349 342 330 325 331 344 357 374 381 384 362 302 187 5 -1 -1 -1 -1 107 221 289 326 349 368 369 344 281 171 16 -1 -1 -1 -1 18 91 90 19 -1 -1 -1 -1 85 206 272 293 274 224 152 67 -1 -1 -1 -1 -1 -1 -1 -1 -1 -1 -1 -1 -1 -1 -1 -1 -1 -1 -1 -1 -1 -1 -1
-1 -1 -1 -1 -1 -1 -1 -1 -1 -1 -1 -1 -1 -1 -1 -1 -1 -1 -1 -1 -1 -1 -1 -1 153 294 407 481 521 537 534 533 525 530 533 546 541 509 414 235 6 -1 -1 74 289 479 636 747 820 856 861 830 761 635 445 224 119 196 396 601 756 852 897 922 931 938 950 972 993 1023 1047 1064 1070 1068 1054 1032 1002 958 893 803 668 475 222 70 205 393 479 462 353 177 -1 -1 5 203 346 404 378 279 126 -1 -1 -1 21 151 263 351 410 438 440 426 407 394 390 398 412 428 443 450 438 386 274 98 -1 -1 -1 -1 165 295 379 424 450 463 462 430 353 229 59 -1 -1 -1 -1 103 166 153 65 -1 -1 -1 -1 152 263 323 333 300 235 149 41 -1 -1 -1 -1 -1 -1 -1 -1 -1 -1 -1 -1 -1 -1 -1 -1 -1 -1 -1 -1 -1 -1 -1
-1 -1 -1 -1 -1 -1 -1 -1 -1 -1 -1 -1 -1 -1 -1 -1 -1 -1 -1 -1 -1 -1 -1 -1 71 240 378 488 564 608 630 637 639 642 645 647 648 613 524 355 140 1 1 132 330 524 679 801 884 935 954 947 902 811 652 456 318 302 434 626 794 915 988 1024 1045 1053 1063 1080 1102 1123 1142 1152 1153 1146 1125 1097 1054 996 915 801 655 452 266 158 334 482 530 476 347 167 16 -1 127 297 408 427 354 203 49 -1 -1 62 193 311 400 463 501 517 506 479 451 430 418 419 431 448 468 484 482 446 354 199 30 -1 -1 77 220 360 454 508 534 542 532 487 397 262 89 -1 -1 -1 69 185 228 195 93 -1 -1 -1 84 224 318 360 350 297 212 101 -1 -1 -1 -1 -1 -1 -1 -1 -1 -1 -1 -1 -1 -1 -1 -1 -1 -1 -1 -1 -1 -1 -1 -1
-1 -1 -1 -1 -1 -1 -1 -1 -1 -1 -1 -1 -1 -1 -1 -1 -1 -1 -1 -1 -1 -1 -1 -1 0 149 316 449 555 628 680 709 725 733 740 744 735 707 626 478 309 197 171 245 402 568 722 838 926 985 1016 1021 999 933 813 667 539 474 519 663 824 951 1045 1102 1134 1149 1157 1172 1192 1207 1216 1220 1213 1193 1164 1125 1071 996 893 758 584 421 259 367 458 540 531 440 287 140 33 133 263 393 454 425 308 132 -1 -1 101 233 352 448 517 556 572 567 542 503 463 429 410 404 410 428 453 478 492 477 418 305 185 109 103 165 286 413 514 572 600 602 577 514 406 260 80 -1 -1 7 163 257 272 216 103 -1 -1 35 175 293 367 383 344 260 144 7 -1 -1 -1 -1 -1 -1 -1 -1 -1 -1 -1 -1 -1 -1 -1 -1 -1 -1 -1 -1 -1 -1 -1 -1
-1 -1 -1 -1 -1 -1 -1 -1 -1 -1 -1 -1 -1 -1 -1 -1 -1 -1 -1 9 71 80 37 -1 -1 74 214 369 491 598 680 742 780 805 820 826 821 795 724 608 490 402 365 398 493 628 755 868 950 1008 1044 1060 1053 1016 941 843 746 673 650 717 855 983 1081 1156 1201 1225 1237 1251 1264 1274 1274 1265 1242 1209 1167 1114 1048 956 834 671 519 357 440 499 560 546 477 350 220 104 188 284 401 467 468 386 242 89 15 127 269 394 495 563 603 620 613 588 548 499 445 399 370 358 358 373 400 430 459 475 456 403 328 275 253 290 364 468 561 624 650 643 597 506 376 209 54 -1 25 140 260 315 299 216 118 26 77 158 271 362 406 391 316 195 42 -1 -1 -1 -1 -1 -1 -1 -1 -1 -1 -1 -1 -1 -1 -1 -1 -1 -1 -1 -1 -1 -1 -1 -1 -1
-1 -1 -1 -1 -1 -1 -1 -1 -1 -1 -1 -1 -1 -1 -1 -1 -1 -1 -1 102 183 217 203 138 78 2 131 247 388 521 641 737 808 854 883 901 899 876 823 744 663 593 553 559 610 697 800 889 961 1009 1042 1062 1071 1062 1030 977 916 851 815 823 898 1015 1118 1193 1250 1282 1302 1314 1325 1324 1313 1284 1238 1184 1123 1058 977 878 735 592 440 512 559 608 584 495 368 260 162 247 336 441 503 508 443 322 179 101 188 296 431 536 608 647 656 646 620 581 528 467 404 349 313 294 293 300 320 354 395 440 474 472 445 411 403 409 458 528 609 664 688 667 598 478 316 159 25 77 169 283 352 364 306 220 124 153 206 295 373 428 437 389 282 130 -1 -1 -1 -1 -1 -1 -1 -1 -1 -1 -1 -1 -1 -1 -1 -1 -1 -1 -1 -1 -1 -1 -1 -1 -1 -1
-1 -1 -1 -1 -1 -1 -1 -1 -1 -1 -1 -1 -1 -1 -1 -1 -1 33 116 206 291 343 348 307 221 140 46 156 274 429 576 707 809 884 932 959 966 952 917 867 808 755 718 709 730 780 846 908 956 990 1013 1034 1052 1073 1080 1070 1040 1001 962 958 992 1059 1151 1229 1287 1328 1351 1367 1371 1362 1333 1282 1206 1112 1024 943 869 764 653 516 578 623 673 646 556 427 278 222 303 388 495 557 569 516 408 278 203 263 357 474 571 646 686 692 671 634 592 545 487 422 354 292 251 235 226 231 247 274 326 397 464 510 525 522 516 530 552 602 658 703 715 683 593 454 278 129 148 216 318 400 434 404 328 229 231 271 343 410 465 487 464 391 262 113 -1 -1 -1 -1 -1 -1 -1 -1 -1 -1 -1 -1 -1 -1 -1 -1 -1 -1 -1 -1 -1 -1 -1 -1 -1 -1
-1 -1 -1 -1 -1 -1 -1 -1 -1 -1 -1 -1 -1 -1 -1 42 109 178 252 327 399 455 476 451 377 264 159 77 193 336 506 661 797 898 965 1005 1021 1020 999 968 928 887 855 838 838 860 890 922 944 958 971 986 1019 1059 1095 1117 1122 1107 1091 1080 1096 1135 1194 1262 1321 1363 1391 1405 1405 1386 1342 1268 1160 1025 893 801 730 679 584 647 692 744 728 649 521 385 361 388 457 551 617 644 611 522 412 345 365 434 533 619 682 722 728 700 647 589 538 489 436 374 308 250 206 192 187 194 205 228 279 361 446 522 574 601 610 620 645 674 710 740 742 696 604 457 312 260 289 368 447 498 502 450 364 328 345 401 458 511 539 537 495 408 295 171 77 31 41 71 79 43 -1 -1 -1 -1 -1 -1 -1 -1 -1 -1 -1 -1 -1 -1 -1 -1 -1 -1 -1 -1
-1 -1 -1 -1 -1 -1 -1 -1 -1 -1 -1 -1 -1 -1 45 146 228 309 381 448 509 559 588 572 506 392 250 147 121 269 449 625 779 903 986 1038 1067 1073 1066 1046 1020 992 965 942 928 926 929 927 924 925 926 944 983 1032 1086 1132 1164 1178 1180 1182 1189 1214 1255 1304 1353 1396 1423 1435 1430 1402 1348 1261 1135 987 845 739 677 647 721 768 818 821 770 656 533 501 522 571 631 688 719 709 652 577 510 499 533 604 676 732 763 767 740 681 600 524 465 423 380 330 277 222 198 184 205 217 230 246 284 350 443 530 604 653 681 698 716 741 763 777 772 729 638 536 455 421 444 503 552 581 565 509 457 443 469 514 559 587 597 579 530 454 363 286 229 200 194 203 184 119 13 -1 -1 -1 -1 -1 -1 -1 -1 -1 -1 -1 -1 -1 -1 -1 -1 -1 -1 -1
-1 -1 -1 -1 -1 -1 -1 -1 -1 -1 -1 -1 -1 -1 91 212 317 408 492 557 613 658 684 673 608 488 340 200 144 236 419 609 777 906 1002 1062 1097 1113 1113 1105 1089 1071 1048 1022 1000 980 960 937 914 900 899 916 956 1012 1072 1130 1176 1210 1232 1247 1260 1279 1310 1351 1391 1424 1450 1459 1448 1416 1358 1270 1160 1035 930 844 797 812 848 903 916 885 812 727 660 657 693 737 774 801 807 780 729 680 653 660 693 738 787 813 811 782 723 639 538 444 386 348 323 286 246 215 194 224 249 276 296 319 352 398 465 553 630 691 731 758 776 794 811 820 810 775 714 650 600 577 588 615 646 650 629 588 558 557 576 606 630 639 629 603 558 500 441 397 367 343 332 317 279 203 101 6 -1 -1 -1 -1 -1 -1 -1 -1 -1 -1 -1 -1 -1 -1 -1 -1 -1 -1
-1 -1 -1 -1 -1 -1 -1 -1 -1 -1 -1 -1 -1 -1 120 264 381 480 571 646 701 746 768 756 690 569 410 260 186 256 415 606 779 918 1014 1079 1116 1134 1141 1140 1133 1121 1103 1080 1053 1026 995 959 934 910 892 905 939 993 1053 1112 1164 1205 1241 1270 1295 1318 1350 1388 1424 1452 1470 1475 1462 1428 1375 1301 1215 1126 1054 1002 972 972 994 1007 997 950 887 836 812 815 843 871 892 899 889 862 826 799 791 804 823 848 863 860 826 764 677 573 458 359 302 291 257 248 219 193 219 259 307 344 379 408 445 484 529 591 665 726 771 803 823 839 851 857 850 827 788 749 718 706 705 718 724 717 695 670 652 651 661 669 669 655 628 591 553 517 491 472 461 451 434 410 365 290 209 138 85 53 35 38 33 16 -1 -1 -1 -1 -1 -1 -1 -1 -1 -1 -1 -1
-1 -1 -1 -1 -1 -1 -1 -1 -1 -1 -1 -1 -1 8 162 308 437 538 625 710 775 818 840 826 761 640 477 315 238 293 441 616 792 926 1026 1087 1121 1138 1146 1151 1149 1143 1132 1114 1092 1064 1032 999 971 938 909 900 930 972 1028 1079 1124 1164 1202 1245 1288 1330 1367 1408 1445 1472 1487 1487 1470 1437 1389 1332 1267 1205 1158 1123 1102 1094 1097 1093 1067 1021 977 948 939 948 962 980 986 983 967 944 920 906 903 910 922 924 912 875 812 718 596 480 374 289 263 258 269 222 194 197 232 288 350 410 458 500 537 574 612 655 709 762 805 836 857 870 880 885 882 868 847 824 806 797 798 798 791 778 758 740 726 719 712 695 665 624 575 527 488 474 476 489 500 503 497 475 434 379 317 263 215 183 157 134 107 59 -1 -1 -1 -1 -1 -1 -1 -1 -1 -1 -1 -1
-1 -1 -1 -1 -1 -1 -1 -1 -1 7 53 59 63 103 222 367 493 601 681 753 827 878 901 888 828 709 545 377 286 340 477 653 810 942 1031 1085 1111 1123 1130 1136 1139 1136 1132 1123 1109 1091 1069 1045 1015 981 944 921 919 953 992 1029 1059 1088 1130 1184 1249 1311 1368 1416 1455 1483 1497 1493 1472 1437 1391 1341 1289 1246 1212 1189 1173 1166 1161 1152 1127 1093 1062 1044 1039 1044 1053 1061 1059 1052 1036 1016 999 988 985 986 985 969 931 870 776 645 511 380 310 300 304 311 302 259 213 217 253 312 385 458 526 578 620 654 689 724 761 798 833 857 875 887 894 898 897 891 881 870 862 857 857 854 844 830 814 796 781 758 725 677 612 534 459 390 351 350 389 433 472 497 508 504 483 449 407 363 324 287 252 213 161 88 -1 -1 -1 -1 -1 -1 -1 -1 -1 -1 -1 -1
-1 -1 -1 -1 -1 -1 -1 -1 -1 33 128 185 208 245 311 431 558 664 744 805 866 924 953 947 891 781 619 443 345 387 536 698 847 958 1032 1069 1085 1088 1094 1097 1103 1103 1102 1102 1103 1100 1094 1083 1064 1033 995 963 942 938 961 976 985 1005 1047 1110 1192 1278 1352 1411 1456 1486 1499 1493 1465 1420 1367 1313 1266 1229 1205 1190 1185 1184 1184 1180 1167 1149 1130 1118 1113 1113 1115 1115 1109 1100 1085 1067 1053 1044 1038 1035 1022 990 937 855 731 596 446 358 352 366 382 387 364 320 270 266 297 351 422 502 578 641 688 722 751 781 806 829 848 865 873 881 885 888 889 889 885 882 881 882 885 887 881 872 858 840 814 772 709 620 513 396 286 199 146 167 227 308 371 425 465 488 494 485 462 433 401 365 322 268 199 109 -1 -1 -1 -1 -1 -1 -1 -1 -1 -1 -1 -1
-1 -1 -1 -1 -1 -1 -1 -1 -1 -1 140 244 312 361 421 508 619 721 803 863 914 964 998 998 953 852 696 525 433 474 603 755 881 973 1021 1040 1039 1039 1037 1043 1044 1043 1044 1052 1063 1079 1094 1106 1105 1086 1055 1021 992 969 954 951 953 962 995 1063 1154 1244 1332 1400 1451 1484 1497 1485 1445 1382 1308 1242 1186 1154 1131 1126 1133 1144 1157 1169 1174 1172 1168 1162 1157 1154 1148 1142 1133 1121 1106 1092 1081 1072 1068 1060 1039 1002 940 844 730 583 483 447 441 465 477 468 443 397 359 343 367 412 474 549 626 691 740 774 797 819 833 843 850 852 851 848 851 854 857 855 855 855 861 872 887 899 904 902 890 869 834 776 685 557 410 268 138 56 5 -1 57 125 212 293 367 425 461 480 480 469 447 414 368 306 227 124 2 -1 -1 -1 -1 -1 -1 -1 -1 -1 -1 -1
-1 -1 -1 -1 -1 -1 -1 -1 -1 -1 94 239 353 437 507 584 676 770 852 916 965 1006 1037 1043 1006 917 778 623 554 587 692 814 916 977 998 990 980 968 971 969 971 963 963 969 992 1026 1070 1108 1131 1130 1112 1088 1061 1035 1010 998 994 997 1011 1060 1144 1235 1317 1390 1445 1480 1491 1474 1423 1339 1232 1130 1067 1019 998 1001 1015 1044 1080 1114 1140 1158 1166 1169 1166 1160 1151 1141 1129 1115 1099 1088 1080 1076 1071 1064 1046 1009 947 866 756 659 587 561 571 576 578 563 532 495 460 444 450 490 544 604 674 735 781 810 827 835 838 836 828 816 800 793 789 798 799 797 793 792 806 835 867 895 914 919 910 887 844 777 670 533 381 248 174 113 65 8 -1 -1 22 123 233 319 386 431 458 467 460 435 393 330 247 146 20 -1 -1 -1 -1 -1 -1 -1 -1 -1 -1 -1
-1 -1 -1 -1 -1 -1 -1 -1 -1 -1 16 190 338 465 560 642 729 815 893 959 1012 1050 1075 1079 1053 975 854 727 678 711 784 875 945 976 963 928 898 892 891 893 881 870 860 866 901 967 1034 1095 1140 1161 1163 1148 1133 1114 1094 1080 1079 1079 1090 1116 1172 1250 1326 1389 1444 1477 1487 1467 1411 1313 1192 1062 951 878 858 845 862 907 969 1024 1071 1105 1129 1139 1139 1133 1121 1111 1096 1080 1063 1054 1051 1049 1052 1049 1038 1010 964 899 824 755 709 690 692 693 680 661 630 598 568 548 552 577 621 672 724 773 809 828 833 828 817 801 781 755 731 713 716 717 721 713 698 702 728 781 838 885 914 926 921 898 855 784 691 570 453 377 326 281 216 115 -1 -1 -1 -1 74 185 271 344 395 429 443 434 401 345 267 167 54 -1 -1 -1 -1 -1 -1 -1 -1 -1 -1 -1
-1 -1 -1 -1 -1 -1 -1 -1 -1 -1 -1 112 296 450 579 681 771 858 933 999 1053 1092 1113 1116 1091 1024 920 826 792 818 874 931 970 971 931 864 815 805 811 803 789 770 758 768 827 910 999 1075 1136 1179 1199 1202 1195 1187 1177 1169 1169 1173 1183 1202 1234 1285 1347 1404 1448 1478 1485 1465 1410 1327 1210 1082 953 847 784 754 744 795 849 914 972 1023 1060 1078 1082 1075 1067 1053 1038 1016 1000 991 992 1002 1012 1018 1018 1006 977 937 889 844 819 805 799 794 780 755 727 699 674 656 654 671 705 742 777 804 821 822 811 793 769 743 711 678 643 629 628 632 623 610 603 599 658 739 813 873 910 926 925 905 866 810 733 649 579 526 486 441 369 260 122 -1 -1 -1 -1 27 134 223 302 359 398 410 395 351 280 191 79 -1 -1 -1 -1 -1 -1 -1 -1 -1 -1 -1
-1 -1 -1 -1 -1 -1 -1 -1 -1 -1 -1 27 227 409 563 693 799 889 969 1036 1090 1129 1149 1151 1124 1064 983 914 887 912 949 979 987 965 910 832 756 734 728 723 710 702 711 735 795 884 973 1061 1133 1187 1221 1239 1246 1246 1243 1243 1247 1254 1266 1283 1303 1336 1379 1423 1458 1479 1484 1466 1425 1355 1263 1157 1047 951 876 824 782 729 754 792 854 919 968 993 999 997 987 977 956 931 910 902 914 933 951 972 985 987 977 957 932 909 892 887 882 878 863 842 813 789 770 755 749 761 781 806 824 828 813 787 756 725 695 661 628 587 558 540 544 538 531 523 514 566 635 720 799 862 902 920 921 905 876 833 781 726 680 642 605 559 490 391 279 160 28 -1 -1 -1 -1 86 178 259 322 363 372 346 288 203 101 -1 -1 -1 -1 -1 -1 -1 -1 -1 -1 -1
-1 -1 -1 -1 -1 -1 -1 -1 -1 -1 -1 -1 155 352 529 678 804 908 996 1067 1123 1162 1182 1181 1154 1104 1040 986 972 983 1001 1007 995 959 900 827 754 685 679 672 693 739 764 790 824 888 975 1056 1134 1193 1235 1263 1280 1288 1290 1294 1300 1311 1324 1339 1356 1377 1407 1438 1463 1479 1481 1468 1435 1383 1314 1238 1161 1088 1019 955 882 806 719 702 753 805 858 892 902 901 896 881 858 827 801 802 818 844 878 910 936 953 956 951 942 935 930 931 933 932 926 909 887 866 849 836 832 838 852 858 860 838 790 726 669 626 597 572 535 503 478 471 462 463 459 459 507 572 652 731 801 854 890 907 908 898 877 849 814 777 744 712 679 635 574 496 402 288 157 11 -1 -1 -1 -1 32 130 226 297 335 329 286 212 109 -1 -1 -1 -1 -1 -1 -1 -1 -1 -1 -1
-1 -1 -1 -1 -1 -1 -1 -1 -1 -1 -1 -1 92 301 489 653 791 910 1004 1087 1145 1188 1209 1208 1184 1139 1090 1050 1030 1028 1025 1011 983 942 888 820 743 691 658 707 757 807 850 874 901 938 997 1072 1138 1198 1241 1272 1293 1305 1313 1319 1328 1338 1350 1362 1376 1394 1415 1438 1459 1471 1471 1459 1434 1397 1348 1295 1241 1187 1133 1071 998 904 809 741 687 717 749 779 795 797 792 779 749 716 697 693 716 751 793 835 873 900 915 919 918 921 926 934 945 955 959 954 943 928 913 902 899 902 904 901 882 842 770 673 581 521 503 479 455 429 419 408 407 408 419 468 529 605 680 750 807 847 872 885 884 875 863 845 823 796 768 740 709 671 622 558 482 385 262 123 -1 -1 -1 -1 -1 4 127 227 283 297 273 212 124 8 -1 -1 -1 -1 -1 -1 -1 -1 -1 -1
-1 -1 -1 -1 -1 -1 -1 -1 -1 -1 -1 -1 66 257 458 627 777 898 1006 1089 1160 1205 1230 1230 1210 1173 1130 1091 1061 1039 1015 985 949 905 850 781 719 663 696 745 817 872 917 951 976 1004 1041 1093 1151 1200 1239 1267 1285 1299 1307 1318 1327 1334 1341 1349 1361 1377 1398 1421 1442 1453 1450 1437 1415 1385 1349 1310 1270 1233 1193 1146 1083 1004 920 823 737 661 668 675 681 690 691 672 645 620 598 600 625 665 711 758 802 837 859 866 866 870 881 896 920 945 965 976 976 969 959 951 947 945 941 926 898 845 766 669 565 481 437 422 399 380 373 372 373 387 433 490 560 634 702 761 803 831 846 851 848 841 830 822 808 785 760 731 704 671 631 585 527 450 349 226 86 -1 -1 -1 -1 -1 35 143 214 248 244 205 132 29 -1 -1 -1 -1 -1 -1 -1 -1 -1 -1
-1 -1 -1 -1 -1 -1 -1 -1 -1 -1 -1 -1 76 258 435 617 761 891 996 1092 1164 1218 1246 1251 1232 1198 1157 1112 1065 1014 969 926 885 835 779 724 662 670 690 767 839 908 956 997 1031 1060 1088 1125 1163 1200 1227 1245 1258 1266 1278 1289 1295 1298 1298 1300 1308 1327 1354 1384 1411 1425 1423 1405 1378 1345 1310 1277 1248 1222 1200 1172 1130 1073 1001 914 807 710 623 602 594 602 596 584 566 546 534 535 559 600 643 689 733 772 793 799 794 792 799 827 867 911 948 974 986 987 983 978 974 969 961 942 910 861 791 702 603 514 459 409 383 369 362 362 372 408 456 516 581 646 706 751 783 800 805 803 798 789 783 778 770 750 727 698 668 641 610 577 538 484 410 311 186 46 -1 -1 -1 -1 -1 46 127 179 199 182 132 48 -1 -1 -1 -1 -1 -1 -1 -1 -1 -1
-1 -1 -1 -1 -1 -1 -1 -1 -1 -1 -1 -1 132 290 455 605 763 884 1000 1093 1171 1226 1260 1267 1253 1221 1173 1118 1052 974 898 839 795 760 709 679 665 643 688 754 840 910 974 1021 1065 1099 1127 1149 1171 1188 1197 1205 1207 1214 1227 1235 1237 1229 1220 1210 1217 1245 1285 1333 1371 1393 1393 1375 1335 1283 1237 1197 1172 1161 1156 1150 1133 1102 1051 977 885 776 674 601 578 567 560 550 540 529 518 514 533 558 593 631 673 708 725 721 706 690 698 734 791 855 913 952 974 983 983 982 978 974 965 950 923 881 823 746 659 580 508 451 412 394 385 384 397 429 476 531 586 642 686 722 743 749 746 740 733 727 720 718 709 697 673 643 614 584 561 538 515 486 439 364 260 129 -1 -1 -1 -1 -1 -1 26 95 135 144 116 58 -1 -1 -1 -1 -1 -1 -1 -1 -1 -1
-1 -1 -1 -1 -1 -1 -1 -1 -1 -1 -1 65 206 345 485 630 761 900 1007 1105 1182 1239 1272 1281 1268 1233 1183 1115 1031 936 835 762 723 718 729 712 676 650 685 758 832 909 976 1037 1085 1123 1147 1159 1160 1152 1144 1135 1141 1151 1157 1162 1150 1128 1099 1078 1092 1133 1211 1281 1330 1357 1361 1346 1301 1229 1149 1087 1056 1053 1067 1079 1091 1088 1064 1018 946 855 762 698 658 632 613 602 592 581 561 543 524 538 555 587 624 654 661 640 604 573 576 627 711 799 868 915 944 956 961 963 960 958 956 948 927 894 845 783 707 629 556 491 445 412 396 391 401 430 473 523 576 617 649 671 680 679 670 659 654 649 645 641 638 624 602 574 541 511 486 470 467 458 437 388 308 197 60 -1 -1 -1 -1 -1 -1 -1 52 80 79 46 -1 -1 -1 -1 -1 -1 -1 -1 -1 -1
-1 -1 -1 -1 -1 -1 -1 -1 -1 -1 -1 128 270 409 537 666 793 911 1028 1121 1197 1253 1284 1292 1274 1238 1178 1104 1008 898 803 733 755 776 779 747 703 675 724 791 856 919 988 1050 1102 1136 1154 1149 1124 1091 1061 1048 1056 1073 1081 1064 1034 988 934 916 933 1041 1151 1235 1287 1317 1329 1319 1278 1204 1103 998 930 926 940 977 1009 1034 1042 1026 985 923 860 807 768 736 707 685 667 645 617 580 550 529 542 566 593 613 606 562 494 448 455 537 649 747 822 872 897 911 918 920 923 923 929 930 919 894 857 801 734 658 576 501 433 386 359 347 354 386 435 490 537 571 590 599 596 584 574 560 558 556 558 558 550 543 523 492 455 417 390 384 391 407 408 385 331 245 126 -1 -1 -1 -1 -1 -1 -1 -1 -1 12 5 -1 -1 -1 -1 -1 -1 -1 -1 -1 -1
-1 -1 -1 -1 -1 -1 -1 -1 -1 -1 -1 146 313 462 596 720 837 950 1054 1145 1217 1267 1295 1296 1273 1226 1161 1075 974 860 768 785 826 853 833 772 707 732 789 851 906 959 1013 1069 1116 1145 1150 1122 1065 1002 956 940 959 983 979 941 879 803 755 732 848 983 1109 1193 1243 1273 1289 1289 1263 1205 1114 995 881 813 830 858 906 950 986 1004 993 965 929 891 856 822 788 756 725 693 653 610 568 548 543 556 573 579 558 493 390 323 364 477 602 705 778 820 842 847 851 857 862 874 888 897 896 882 852 807 741 661 571 466 367 302 259 239 242 292 362 422 469 497 509 506 493 474 453 452 445 459 464 461 462 454 434 402 357 309 282 278 309 338 359 358 328 268 176 62 -1 -1 -1 -1 -1 -1 -1 -1 -1 -1 -1 -1 -1 -1 -1 -1 -1 -1 -1 -1
-1 -1 -1 -1 -1 -1 -1 -1 -1 -1 -1 110 307 483 637 769 888 992 1088 1173 1238 1282 1300 1289 1253 1197 1121 1028 921 830 785 846 903 916 875 791 725 764 850 920 970 1012 1053 1092 1127 1143 1133 1084 996 896 833 822 857 878 853 786 687 609 556 676 819 968 1078 1151 1193 1220 1240 1250 1244 1212 1144 1045 931 837 751 758 787 842 905 948 970 969 956 934 905 873 838 801 761 719 673 626 589 562 550 548 551 547 513 433 314 241 302 442 571 669 732 763 766 768 767 767 785 809 832 851 860 858 839 800 738 657 548 418 278 192 169 113 115 188 254 325 371 395 402 392 371 342 333 321 344 357 359 360 366 359 348 311 252 193 156 173 212 259 294 311 305 272 208 116 5 -1 -1 -1 -1 -1 -1 -1 -1 -1 -1 -1 -1 -1 -1 -1 -1 -1 -1 -1
-1 -1 -1 -1 -1 -1 -1 -1 -1 -1 -1 34 251 456 637 794 921 1034 1125 1202 1262 1296 1299 1268 1209 1137 1054 958 874 813 867 922 968 968 909 812 742 793 893 975 1028 1063 1090 1113 1130 1129 1102 1038 930 791 707 710 752 769 716 602 489 400 509 656 821 956 1047 1100 1130 1152 1177 1202 1217 1211 1171 1101 1008 899 802 703 678 741 802 868 914 939 944 936 916 890 858 820 778 731 680 635 597 566 542 529 521 509 466 382 261 192 277 417 545 632 676 683 680 661 660 664 693 730 764 791 815 827 822 794 740 658 539 397 273 171 123 145 130 97 158 206 249 273 273 260 229 215 195 215 237 248 254 262 260 274 265 230 151 73 37 57 112 171 219 251 264 253 215 149 60 -1 -1 -1 -1 -1 -1 -1 -1 -1 -1 -1 -1 -1 -1 -1 -1 -1 -1 -1
-1 -1 -1 -1 -1 -1 -1 -1 -1 -1 -1 -1 155 383 593 776 937 1060 1159 1231 1285 1309 1295 1242 1155 1050 962 890 840 893 948 1006 1030 1008 932 823 755 818 923 1011 1066 1096 1110 1115 1110 1092 1053 983 866 725 608 604 652 670 599 437 287 334 470 651 809 929 1004 1035 1052 1070 1108 1149 1185 1198 1182 1136 1067 977 873 778 711 656 712 770 834 875 901 907 898 878 850 816 776 731 682 631 584 547 517 494 478 458 417 329 216 163 253 396 512 582 603 593 560 542 522 547 586 633 678 722 762 791 800 786 746 674 568 446 339 263 248 240 215 155 75 100 120 132 137 116 107 80 84 104 126 141 154 150 172 185 195 160 72 -1 -1 -1 12 80 141 185 211 218 201 160 94 4 -1 -1 -1 -1 -1 -1 -1 -1 -1 -1 -1 -1 -1 -1 -1 -1 -1 -1
-1 -1 -1 -1 -1 -1 -1 -1 -1 -1 -1 -1 38 275 512 728 912 1064 1175 1256 1305 1321 1292 1219 1102 984 883 862 924 982 1043 1079 1083 1042 952 834 767 833 946 1029 1081 1100 1097 1082 1056 1026 979 909 799 657 531 514 570 591 505 323 193 266 443 624 779 888 944 961 959 988 1037 1099 1150 1176 1176 1151 1102 1035 956 875 791 717 640 686 735 795 837 859 857 843 821 792 757 716 671 616 558 504 474 444 422 401 356 274 172 135 228 366 468 517 512 472 436 387 382 408 461 520 583 646 704 746 770 772 752 700 620 524 451 403 383 366 320 227 120 22 13 14 -1 10 -1 -1 -1 2 22 40 41 67 83 116 131 103 20 -1 -1 -1 -1 3 70 121 154 170 170 149 106 40 -1 -1 -1 -1 -1 -1 -1 -1 -1 -1 -1 -1 -1 -1 -1 -1 -1 -1
-1 -1 -1 -1 -1 -1 -1 -1 -1 -1 -1 -1 -1 146 398 645 857 1032 1167 1261 1317 1328 1293 1204 1086 958 927 960 1021 1083 1126 1139 1123 1063 964 845 775 847 956 1037 1071 1068 1039 998 959 918 873 809 712 584 462 444 510 534 443 263 136 211 390 576 731 829 872 866 875 905 977 1052 1112 1145 1157 1145 1116 1072 1015 950 878 787 708 618 654 706 764 795 806 796 775 750 722 690 651 598 530 463 405 382 356 329 284 208 128 109 206 328 413 434 400 349 287 252 232 271 338 416 499 576 644 694 729 749 748 723 671 610 557 524 496 467 408 311 183 67 -1 -1 -1 -1 -1 -1 -1 -1 -1 -1 -1 -1 27 61 75 52 -1 -1 -1 -1 -1 -1 11 62 95 116 122 117 96 57 3 -1 -1 -1 -1 -1 -1 -1 -1 -1 -1 -1 -1 -1 -1 -1 -1 -1
-1 -1 -1 -1 -1 -1 -1 -1 -1 -1 -1 -1 -1 43 271 529 772 974 1133 1248 1315 1333 1298 1216 1103 1036 1034 1075 1127 1169 1189 1183 1142 1065 960 843 785 861 972 1032 1039 1001 935 865 809 772 736 685 611 507 411 404 480 503 416 234 105 158 319 505 657 750 776 781 788 851 935 1015 1073 1109 1123 1120 1106 1080 1043 995 937 864 771 682 599 640 682 727 745 742 721 694 671 653 625 579 513 422 338 301 269 242 199 136 74 103 185 292 353 347 293 222 170 126 131 177 257 353 442 524 587 635 674 706 729 731 713 678 644 615 584 542 481 385 267 147 50 -1 -1 -1 -1 -1 -1 -1 -1 -1 -1 -1 -1 12 18 8 -1 -1 -1 -1 -1 -1 -1 12 36 53 64 67 67 52 25 -1 -1 -1 -1 -1 -1 -1 -1 -1 -1 -1 -1 -1 -1 -1 -1 -1
-1 -1 -1 -1 -1 -1 -1 -1 -1 13 77 63 37 17 178 414 668 901 1082 1217 1303 1335 1312 1245 1175 1141 1146 1180 1214 1233 1231 1199 1136 1044 928 833 804 903 991 1026 995 913 806 704 632 602 581 557 507 433 375 408 468 488 413 260 94 95 219 393 545 632 668 689 752 832 914 986 1039 1067 1076 1078 1072 1059 1039 1009 966 908 833 743 661 580 613 647 682 686 667 631 613 602 590 557 498 411 294 210 177 138 107 64 39 83 174 257 299 278 203 133 83 66 82 143 227 316 402 469 517 559 596 647 695 728 737 725 704 678 647 603 541 453 349 245 147 44 -1 -1 -1 -1 -1 -1 -1 -1 -1 -1 -1 -1 -1 -1 -1 -1 -1 -1 -1 -1 -1 -1 -1 -1 -1 8 20 23 18 4 -1 -1 -1 -1 -1 -1 -1 -1 -1 -1 -1 -1 -1 -1 -1 -1
-1 -1 -1 -1 -1 -1 -1 -1 -1 31 156 216 200 186 186 350 590 825 1028 1181 1285 1337 1335 1301 1261 1241 1246 1263 1275 1270 1240 1185 1105 994 892 823 887 959 1025 1029 968 861 717 597 512 461 455 437 409 373 355 407 460 468 409 278 127 27 99 249 396 481 562 652 742 828 908 965 1001 1014 1019 1018 1013 1010 1004 991 963 921 864 794 709 629 552 582 616 641 623 583 549 548 543 530 489 413 307 175 89 44 26 11 11 66 153 228 257 227 156 85 48 45 78 137 214 292 354 396 425 453 511 582 655 714 744 749 738 716 685 643 587 510 424 332 232 125 16 -1 -1 -1 -1 -1 -1 -1 -1 -1 -1 -1 -1 -1 -1 -1 -1 -1 -1 -1 -1 -1 -1 -1 -1 -1 -1 -1 -1 -1 -1 -1 -1 -1 -1 -1 -1 -1 -1 -1 -1 -1 -1 -1 -1 -1
-1 -1 -1 -1 -1 -1 -1 -1 -1 21 192 312 371 356 365 403 566 786 983 1152 1270 1340 1366 1357 1340 1328 1323 1322 1310 1277 1217 1137 1037 945 860 910 967 1037 1069 1052 979 863 744 631 530 452 382 355 337 319 351 393 431 431 376 266 115 -1 9 128 264 398 525 649 752 836 899 939 954 954 944 940 938 938 945 945 932 904 862 810 745 665 593 530 573 594 595 566 526 492 500 493 476 426 336 213 79 13 -1 -1 5 54 128 199 227 198 135 77 45 47 82 138 199 259 294 307 310 352 429 528 621 695 738 752 745 724 695 657 607 549 479 396 303 201 100 17 -1 -1 -1 -1 -1 -1 -1 -1 -1 -1 -1 -1 -1 -1 -1 -1 -1 -1 -1 -1 -1 -1 -1 -1 -1 -1 -1 -1 -1 -1 -1 -1 -1 -1 -1 -1 -1 -1 -1 -1 -1 -1 -1 -1
-1 -1 -1 -1 -1 -1 -1 -1 -1 27 208 370 482 537 533 571 643 791 979 1138 1265 1351 1392 1407 1402 1392 1375 1352 1313 1249 1164 1058 971 889 945 998 1068 1110 1126 1097 1024 928 824 719 613 506 405 323 292 308 336 369 382 368 315 217 84 -1 11 125 266 413 561 681 770 837 884 904 898 877 862 848 845 853 871 881 877 862 834 797 750 692 619 556 513 562 586 570 534 497 452 460 450 428 365 257 130 47 14 7 11 45 106 168 198 181 135 85 55 57 86 131 181 213 221 208 218 283 386 495 601 679 727 743 730 703 673 638 598 552 500 435 356 266 175 90 19 -1 -1 -1 -1 -1 -1 -1 -1 -1 -1 -1 -1 -1 -1 -1 -1 -1 -1 -1 -1 -1 -1 -1 -1 -1 -1 -1 -1 -1 -1 -1 -1 -1 -1 -1 -1 -1 -1 -1 -1 -1 -1 -1
-1 -1 -1 -1 -1 -1 -1 -1 -1 82 243 415 556 654 705 726 787 875 1009 1151 1275 1361 1418 1442 1447 1430 1396 1345 1279 1193 1082 988 906 965 1029 1106 1156 1184 1183 1149 1082 996 900 795 682 562 438 345 294 308 331 338 322 284 230 138 43 -1 75 201 345 491 618 719 785 833 864 869 841 801 767 751 750 772 792 807 810 805 791 768 734 689 630 552 499 536 578 577 550 507 466 416 423 412 370 290 186 125 76 38 19 30 72 129 167 167 135 95 68 63 85 119 149 160 148 138 177 264 376 493 595 672 717 727 705 664 620 581 543 515 483 440 381 306 225 146 77 22 -1 -1 -1 -1 -1 -1 -1 -1 -1 -1 -1 -1 -1 -1 -1 -1 -1 -1 -1 -1 -1 -1 -1 -1 -1 -1 -1 -1 -1 -1 -1 -1 -1 -1 -1 -1 -1 -1 -1 -1 -1 -1
-1 -1 -1 -1 -1 -1 -1 -1 82 202 317 471 618 738 821 876 922 993 1082 1193 1298 1385 1442 1472 1474 1447 1386 1301 1208 1103 1012 927 985 1056 1137 1197 1233 1245 1231 1188 1121 1034 935 826 704 571 453 353 336 333 333 308 254 197 122 51 -1 27 123 270 416 552 664 741 789 819 839 840 807 745 690 662 673 692 713 732 740 743 739 727 710 674 620 551 492 528 555 566 550 519 474 434 386 387 358 292 251 193 125 61 11 -1 25 81 126 142 127 97 69 62 73 96 108 107 103 138 202 293 403 510 601 670 709 713 684 623 556 488 450 430 423 404 366 310 243 176 113 61 22 -1 -1 -1 -1 -1 -1 -1 -1 -1 -1 -1 -1 -1 -1 -1 -1 -1 -1 -1 -1 -1 -1 -1 -1 -1 -1 -1 -1 -1 -1 -1 -1 -1 -1 -1 -1 -1 -1 -1 -1 -1
-1 -1 -1 -1 -1 -1 -1 -1 138 283 418 547 681 805 906 982 1042 1100 1175 1255 1338 1414 1469 1497 1493 1447 1358 1236 1108 1020 946 1016 1087 1167 1230 1272 1288 1282 1252 1197 1117 1019 909 787 659 541 425 400 382 374 345 288 201 105 36 -1 -1 7 139 282 441 575 678 740 773 792 811 816 788 728 667 622 615 632 649 664 675 683 686 696 688 660 615 555 536 495 527 527 527 508 481 445 413 365 343 336 290 222 140 49 -1 -1 -1 20 72 101 102 85 62 47 53 62 70 75 113 177 258 350 446 538 615 670 700 701 668 608 518 415 333 318 318 325 307 272 225 172 120 74 37 8 -1 -1 -1 -1 -1 -1 -1 -1 -1 -1 -1 -1 -1 -1 -1 -1 -1 -1 -1 -1 -1 -1 -1 -1 -1 -1 -1 -1 -1 -1 -1 -1 -1 -1 -1 -1 -1 -1 -1 -1
-1 -1 -1 -1 -1 -1 -1 -1 126 322 476 618 745 862 973 1062 1130 1190 1252 1323 1391 1451 1499 1521 1508 1447 1330 1174 1027 951 1026 1108 1203 1265 1304 1319 1313 1284 1232 1159 1062 948 814 688 578 481 468 448 434 403 351 273 161 53 -1 -1 -1 4 96 258 411 558 658 714 735 756 780 798 784 739 676 628 601 600 607 614 625 632 654 675 680 663 626 604 570 535 479 483 477 474 469 455 431 411 393 366 310 223 112 3 -1 -1 -1 -1 6 45 62 58 42 29 29 36 48 86 151 230 318 405 492 566 626 670 689 685 656 601 519 409 289 206 209 209 210 194 164 125 87 52 21 -1 -1 -1 -1 -1 -1 -1 -1 -1 -1 -1 -1 -1 -1 -1 -1 -1 -1 -1 -1 -1 -1 -1 -1 -1 -1 -1 -1 -1 -1 -1 -1 -1 -1 -1 -1 -1 -1 -1 -1 -1
-1 -1 -1 -1 -1 -1 -1 -1 80 301 504 660 800 920 1025 1122 1202 1261 1321 1381 1443 1495 1531 1545 1521 1448 1318 1140 1007 1020 1107 1217 1291 1335 1345 1331 1294 1239 1161 1067 954 825 703 571 521 528 513 496 458 404 330 232 136 38 55 41 14 -1 67 179 352 494 606 657 688 709 756 786 786 755 705 657 626 598 587 590 596 618 647 675 690 681 663 642 615 566 515 446 425 436 444 454 457 451 432 388 315 206 84 -1 -1 -1 -1 -1 -1 -1 3 17 18 18 19 31 63 121 197 286 370 453 524 583 628 656 668 661 635 590 525 432 326 224 119 101 94 89 71 43 18 -1 -1 -1 -1 -1 -1 -1 -1 -1 -1 -1 -1 -1 -1 -1 -1 -1 -1 -1 -1 -1 -1 -1 -1 -1 -1 -1 -1 -1 -1 -1 -1 -1 -1 -1 -1 -1 -1 -1 -1 -1 -1 -1
-1 -1 -1 -1 -1 -1 -1 -1 17 260 482 676 835 965 1074 1171 1256 1324 1380 1438 1489 1536 1564 1566 1532 1454 1321 1175 1093 1123 1212 1300 1354 1366 1342 1289 1220 1138 1040 920 800 694 595 600 596 586 558 499 424 346 259 183 97 138 167 182 139 69 32 125 255 410 518 597 636 696 748 786 798 778 741 699 661 624 596 584 602 634 667 698 714 715 700 678 647 602 537 478 428 400 426 459 477 477 454 404 320 208 67 -1 -1 -1 -1 -1 -1 -1 -1 -1 3 22 36 60 104 173 256 339 419 482 537 578 608 626 632 624 600 563 512 449 368 266 162 53 11 2 -1 -1 -1 -1 -1 -1 -1 -1 -1 -1 -1 -1 -1 -1 -1 -1 -1 -1 -1 -1 -1 -1 -1 -1 -1 -1 -1 -1 -1 -1 -1 -1 -1 -1 -1 -1 -1 -1 -1 -1 -1 -1 -1 -1 -1 -1
-1 -1 -1 -1 -1 -1 -1 -1 -1 213 443 659 842 995 1113 1212 1299 1373 1434 1485 1536 1570 1593 1586 1541 1459 1356 1249 1209 1250 1311 1363 1385 1359 1287 1189 1085 985 875 776 650 615 655 677 678 635 555 433 310 218 173 125 193 251 317 340 306 214 94 97 193 316 444 547 651 718 767 806 822 813 784 742 693 646 610 599 628 666 704 733 749 750 735 709 672 622 565 502 437 402 433 475 497 498 472 418 335 222 88 -1 -1 -1 -1 -1 -1 -1 -1 -1 13 51 80 115 167 238 319 394 452 495 523 544 563 576 584 577 555 520 477 431 376 306 214 123 40 -1 -1 -1 -1 -1 -1 -1 -1 -1 -1 -1 -1 -1 -1 -1 -1 -1 -1 -1 -1 -1 -1 -1 -1 -1 -1 -1 -1 -1 -1 -1 -1 -1 -1 -1 -1 -1 -1 -1 -1 -1 -1 -1 -1 -1 -1 -1
-1 -1 -1 -1 -1 -1 -1 -1 -1 200 420 634 832 995 1136 1244 1336 1410 1477 1529 1573 1604 1615 1602 1553 1478 1389 1336 1333 1355 1390 1405 1384 1314 1196 1040 908 798 732 654 688 713 744 757 717 629 487 334 170 123 129 227 310 400 466 497 478 393 277 144 176 284 424 579 693 769 814 842 857 853 823 776 720 660 618 625 660 706 745 772 783 780 760 729 685 632 570 500 445 416 458 501 521 515 485 430 349 245 121 -1 -1 -1 -1 -1 -1 -1 -1 -1 50 105 144 188 246 313 382 440 473 484 482 482 490 510 522 524 505 466 419 379 348 314 261 193 115 45 -1 -1 -1 -1 -1 -1 -1 -1 -1 -1 -1 -1 -1 -1 -1 -1 -1 -1 -1 -1 -1 -1 -1 -1 -1 -1 -1 -1 -1 -1 -1 -1 -1 -1 -1 -1 -1 -1 -1 -1 -1 -1 -1 -1 -1 -1
-1 -1 -1 -1 -1 -1 -1 -1 4 221 428 627 817 992 1137 1265 1364 1446 1512 1567 1607 1634 1640 1619 1569 1501 1449 1427 1424 1436 1435 1413 1349 1240 1080 916 757 695 671 738 788 829 832 791 700 553 398 222 200 206 265 358 464 547 611 644 635 571 450 320 195 295 461 637 758 830 869 894 901 889 854 799 734 669 630 648 697 746 783 803 806 792 765 726 676 617 551 491 440 462 495 531 540 525 488 429 355 258 149 20 -1 -1 -1 -1 -1 -1 -1 14 103 173 227 273 326 386 441 475 479 454 417 393 397 424 452 464 457 417 354 308 294 290 271 236 186 135 90 54 27 2 -1 -1 -1 -1 -1 -1 -1 -1 -1 -1 -1 -1 -1 -1 -1 -1 -1 -1 -1 -1 -1 -1 -1 -1 -1 -1 -1 -1 -1 -1 -1 -1 -1 -1 -1 -1 -1 -1 -1 -1 -1 -1
-1 -1 -1 -1 -1 -1 -1 -1 -1 207 434 634 816 985 1140 1267 1381 1469 1541 1596 1638 1661 1664 1640 1597 1549 1517 1498 1491 1472 1437 1373 1277 1138 992 834 818 797 823 862 904 905 860 767 618 464 295 312 328 377 443 526 612 689 745 773 764 709 594 425 316 295 526 709 825 893 928 944 944 921 874 807 733 673 653 689 737 782 812 818 805 776 737 689 633 570 520 468 490 514 545 560 554 523 473 411 339 258 158 28 -1 -1 -1 -1 -1 -1 -1 73 167 246 309 361 408 452 488 498 473 419 346 294 292 324 368 406 413 383 323 248 233 237 244 238 220 194 164 134 105 78 51 26 1 -1 -1 -1 -1 -1 -1 -1 -1 -1 -1 -1 -1 -1 -1 -1 -1 -1 -1 -1 -1 -1 -1 -1 -1 -1 -1 -1 -1 -1 -1 -1 -1 -1 -1 -1 -1 -1 -1 -1
-1 -1 -1 -1 -1 -1 -1 -1 -1 142 396 624 816 985 1135 1269 1381 1481 1557 1619 1661 1686 1688 1669 1638 1603 1574 1549 1515 1462 1383 1281 1162 1050 923 944 954 981 992 997 980 925 824 670 525 361 412 452 510 558 615 682 752 815 860 878 864 799 669 478 306 410 597 781 889 947 979 990 980 946 883 801 722 685 709 746 786 814 821 807 771 723 675 617 560 515 483 517 543 578 593 589 560 507 438 365 295 222 137 19 -1 -1 -1 -1 -1 -1 60 149 241 323 386 439 479 508 521 509 463 383 292 214 191 230 294 352 379 364 308 244 172 176 187 204 210 208 197 179 155 126 98 70 44 20 -1 -1 -1 -1 -1 -1 -1 -1 -1 -1 -1 -1 -1 -1 -1 -1 -1 -1 -1 -1 -1 -1 -1 -1 -1 -1 -1 -1 -1 -1 -1 -1 -1 -1 -1 -1 -1 -1
-1 -1 -1 -1 -1 -1 -1 -1 -1 56 325 578 793 977 1133 1265 1381 1477 1563 1630 1679 1707 1714 1705 1683 1652 1616 1568 1501 1399 1274 1150 1056 982 1031 1071 1115 1125 1114 1073 999 885 720 566 409 488 553 636 682 726 771 822 875 918 947 953 921 840 692 471 325 451 667 829 934 989 1017 1025 1007 962 891 798 739 745 774 810 832 834 811 764 706 639 582 543 496 491 537 571 613 631 634 610 560 486 393 302 219 152 74 6 -1 -1 21 57 84 118 165 239 323 397 458 502 533 544 536 504 443 360 256 164 134 170 242 309 350 346 307 242 178 115 125 145 167 183 190 184 169 146 119 91 65 40 15 -1 -1 -1 -1 -1 -1 -1 -1 -1 -1 -1 -1 -1 -1 -1 -1 -1 -1 -1 -1 -1 -1 -1 -1 -1 -1 -1 -1 -1 -1 -1 -1 -1 -1 -1 -1 -1
-1 -1 -1 -1 -1 -1 -1 -1 -1 -1 257 513 752 956 1123 1261 1378 1475 1560 1632 1690 1726 1742 1741 1724 1690 1636 1561 1450 1320 1170 1064 1035 1107 1163 1214 1232 1217 1168 1079 952 776 619 453 544 634 738 796 839 869 903 938 971 994 1004 988 933 829 654 464 325 479 667 842 947 1009 1040 1047 1027 978 904 837 807 817 845 861 860 831 777 697 616 558 510 503 532 566 605 647 671 680 664 624 558 468 367 254 149 48 28 -1 40 83 138 178 208 237 280 333 403 467 518 553 566 557 526 476 408 325 233 153 111 141 208 275 317 322 294 247 183 123 70 82 104 132 151 161 155 139 115 89 65 42 19 -1 -1 -1 -1 -1 -1 -1 -1 -1 -1 -1 -1 -1 -1 -1 -1 -1 -1 -1 -1 -1 -1 -1 -1 -1 -1 -1 -1 -1 -1 -1 -1 -1 -1 -1 -1 -1
-1 -1 -1 -1 -1 -1 -1 -1 -1 11 223 470 709 920 1103 1254 1372 1478 1559 1632 1695 1742 1766 1771 1753 1713 1647 1538 1415 1271 1179 1177 1203 1255 1305 1320 1301 1247 1153 1019 833 671 505 607 701 817 890 938 963 983 1004 1022 1035 1038 1022 980 898 755 600 420 471 454 647 794 926 1000 1043 1057 1043 1000 944 898 888 893 899 892 861 805 719 634 544 521 548 574 614 656 689 710 723 714 684 630 555 461 350 236 109 31 -1 58 133 201 249 287 319 348 383 425 473 525 566 587 584 549 491 418 345 267 198 132 98 123 181 238 276 285 268 235 190 134 82 36 47 69 98 117 124 114 96 71 50 31 14 -1 -1 -1 -1 -1 -1 -1 -1 -1 -1 -1 -1 -1 -1 -1 -1 -1 -1 -1 -1 -1 -1 -1 -1 -1 -1 -1 -1 -1 -1 -1 -1 -1 -1 -1 -1 -1
-1 -1 -1 -1 -1 -1 -1 -1 -1 74 265 465 682 896 1076 1230 1364 1472 1565 1636 1702 1752 1785 1793 1774 1730 1650 1546 1413 1348 1333 1348 1377 1397 1401 1377 1317 1216 1076 885 717 545 667 771 891 966 1013 1041 1055 1064 1070 1071 1063 1041 1000 930 804 673 499 583 602 629 589 748 860 963 1026 1057 1055 1030 992 967 953 946 929 891 833 750 668 578 582 594 634 672 704 733 751 758 751 729 685 621 541 440 325 197 97 2 73 144 226 293 343 383 410 438 468 498 534 569 599 609 590 537 449 349 256 191 140 99 81 104 150 195 224 231 224 209 182 146 96 51 10 19 42 66 82 81 68 46 27 11 5 -1 -1 -1 -1 -1 -1 -1 -1 -1 -1 -1 -1 -1 -1 -1 -1 -1 -1 -1 -1 -1 -1 -1 -1 -1 -1 -1 -1 -1 -1 -1 -1 -1 -1 -1 -1 -1
-1 -1 -1 -1 -1 -1 -1 -1 -1 115 314 502 695 882 1058 1208 1345 1465 1560 1644 1706 1762 1797 1809 1792 1745 1672 1572 1506 1480 1483 1494 1496 1482 1446 1379 1274 1129 932 757 578 700 816 954 1037 1083 1102 1109 1109 1105 1098 1083 1055 1010 939 841 724 542 614 675 767 763 742 685 802 901 995 1047 1065 1058 1039 1015 997 969 927 864 777 695 612 639 662 699 732 756 770 776 776 767 749 715 662 591 500 393 262 146 40 98 153 237 304 365 416 453 481 502 527 552 577 602 621 621 594 529 431 305 199 128 94 75 72 86 114 144 164 167 170 166 161 143 113 69 32 -1 0 25 35 41 37 20 3 -1 -1 10 22 26 25 25 22 17 6 -1 -1 -1 -1 -1 -1 -1 -1 -1 -1 -1 -1 -1 -1 -1 -1 -1 -1 -1 -1 -1 -1 -1 -1 -1 -1 -1 -1 -1
-1 -1 -1 -1 -1 -1 -1 -1 -1 76 306 524 717 899 1058 1210 1344 1457 1561 1641 1713 1766 1806 1821 1809 1768 1702 1643 1612 1598 1592 1583 1558 1511 1436 1327 1180 981 794 604 726 850 994 1085 1142 1159 1153 1141 1126 1111 1093 1065 1024 961 883 769 671 677 626 758 835 882 855 817 766 870 954 1031 1070 1081 1072 1046 1011 963 898 808 726 642 676 713 765 794 806 808 795 774 750 730 706 668 613 533 435 309 193 75 131 173 250 311 372 423 466 498 520 539 556 578 598 618 630 626 596 534 434 311 196 132 104 89 81 73 81 93 101 109 111 121 129 133 123 100 65 33 14 -1 1 2 2 -1 -1 -1 1 25 44 54 57 53 46 37 24 6 -1 -1 -1 -1 -1 -1 -1 -1 -1 -1 -1 -1 -1 -1 -1 -1 -1 -1 -1 -1 -1 -1 -1 -1 -1 -1 -1 -1
-1 -1 -1 -1 -1 -1 -1 -1 -1 -1 222 476 704 903 1079 1226 1354 1468 1562 1648 1716 1774 1814 1833 1826 1795 1750 1717 1694 1677 1655 1620 1569 1490 1374 1223 1025 848 650 745 868 1025 1126 1188 1204 1192 1165 1135 1110 1088 1067 1033 986 931 854 830 815 782 769 745 863 935 954 919 883 846 936 1008 1070 1095 1088 1056 1003 929 839 757 676 718 757 812 848 867 857 825 776 720 672 642 618 586 533 452 337 232 109 162 215 283 333 382 428 466 496 518 532 544 559 579 600 619 629 624 598 543 457 349 254 197 164 135 108 81 56 52 54 54 63 77 98 121 134 127 104 76 41 9 -1 -1 -1 -1 -1 -1 14 43 64 77 77 71 59 46 35 22 4 -1 -1 -1 -1 -1 -1 -1 -1 -1 -1 -1 -1 -1 -1 -1 -1 -1 -1 -1 -1 -1 -1 -1 -1 -1 -1 -1
-1 -1 -1 -1 -1 -1 -1 -1 -1 -1 70 350 626 865 1069 1237 1371 1479 1576 1655 1727 1782 1824 1845 1845 1825 1799 1772 1748 1715 1671 1609 1526 1415 1270 1079 894 717 816 916 1054 1162 1235 1256 1237 1193 1142 1100 1073 1055 1036 1010 965 926 929 927 927 899 844 807 877 968 1008 1003 963 926 908 995 1067 1101 1094 1051 978 880 788 714 754 803 862 898 922 916 883 820 737 640 558 521 497 475 425 341 254 142 201 254 326 373 410 439 469 494 510 518 521 527 539 560 584 604 615 614 595 553 486 406 333 284 240 197 149 101 63 37 25 25 32 50 83 120 145 152 137 107 68 23 -1 -1 -1 -1 -1 2 35 62 83 92 90 78 62 47 39 32 21 2 -1 -1 -1 -1 -1 -1 -1 -1 -1 -1 -1 -1 -1 -1 -1 -1 -1 -1 -1 -1 -1 -1 -1 -1 -1 -1
-1 -1 -1 -1 -1 -1 -1 -1 -1 -1 -1 172 480 769 1018 1222 1374 1496 1587 1669 1734 1790 1831 1855 1863 1855 1836 1811 1774 1722 1647 1548 1426 1287 1119 962 798 895 995 1123 1217 1283 1314 1301 1249 1173 1101 1058 1038 1028 1022 1007 997 991 995 1005 992 957 889 893 936 998 1042 1050 1019 967 934 991 1064 1099 1088 1036 947 850 767 799 845 903 945 970 973 952 899 819 713 597 488 406 386 348 303 251 173 238 296 365 409 443 463 479 493 504 511 510 497 496 505 528 551 572 587 591 582 557 514 463 411 360 311 256 197 137 89 52 26 15 26 59 96 137 165 175 160 127 84 34 -1 -1 -1 -1 4 33 61 85 99 102 94 78 58 42 35 34 29 13 -1 -1 -1 -1 -1 -1 -1 -1 -1 -1 -1 -1 -1 -1 -1 -1 -1 -1 -1 -1 -1 -1 -1 -1 -1 -1
-1 -1 -1 -1 -1 -1 -1 -1 -1 -1 -1 -1 291 614 918 1163 1356 1491 1596 1672 1736 1787 1828 1857 1873 1874 1860 1832 1782 1704 1591 1442 1271 1112 985 874 986 1082 1201 1292 1352 1381 1372 1328 1250 1153 1077 1034 1019 1020 1028 1041 1044 1052 1057 1048 1028 980 967 976 1011 1047 1076 1080 1050 992 974 1010 1069 1097 1076 1013 934 846 861 891 938 977 1003 1012 1002 971 917 837 735 622 507 415 335 284 239 212 278 332 399 442 469 482 488 492 493 498 501 503 488 458 465 478 504 524 543 554 556 547 529 500 464 419 367 305 241 176 119 69 35 27 50 89 134 169 193 197 177 137 86 33 -1 -1 -1 11 44 70 93 110 115 108 92 71 50 34 30 34 32 16 -1 -1 -1 -1 -1 -1 -1 -1 -1 -1 -1 -1 -1 -1 -1 -1 -1 -1 -1 -1 -1 -1 -1 -1 -1 -1
-1 -1 -1 -1 -1 -1 -1 -1 -1 -1 -1 -1 107 440 764 1063 1285 1454 1569 1654 1717 1768 1809 1845 1871 1881 1872 1840 1777 1675 1521 1331 1133 983 937 1055 1161 1283 1369 1423 1454 1455 1421 1352 1253 1158 1082 1036 1028 1040 1064 1083 1100 1103 1100 1083 1051 1043 1042 1057 1077 1102 1113 1109 1073 1035 1025 1049 1087 1099 1066 1001 932 935 946 974 997 1016 1025 1021 1005 974 926 862 781 690 594 507 431 374 340 346 379 433 469 490 495 489 480 472 473 475 494 498 484 457 415 427 437 461 481 499 510 517 518 509 488 455 407 345 277 207 140 80 48 59 95 139 182 214 227 218 187 137 76 23 -1 -1 23 58 87 110 126 134 128 111 86 61 41 29 27 34 35 17 -1 -1 -1 -1 -1 -1 -1 -1 -1 -1 -1 -1 -1 -1 -1 -1 -1 -1 -1 -1 -1 -1 -1 -1 -1 -1
-1 -1 -1 -1 -1 -1 -1 -1 -1 -1 -1 -1 49 289 604 897 1169 1359 1498 1590 1658 1718 1769 1819 1858 1878 1875 1842 1775 1652 1491 1281 1118 1083 1145 1237 1350 1438 1496 1526 1530 1510 1461 1382 1283 1181 1101 1066 1068 1089 1115 1140 1150 1152 1136 1113 1104 1103 1113 1127 1139 1152 1157 1142 1115 1086 1082 1097 1114 1110 1070 1016 1005 1003 1013 1016 1016 1013 1007 995 979 953 919 874 819 757 688 620 562 516 487 478 486 501 515 512 490 464 438 434 431 461 480 489 481 450 416 366 373 381 406 428 447 464 481 490 485 466 427 372 302 228 149 95 72 105 152 199 236 257 256 230 185 123 58 6 10 40 74 105 131 146 155 153 137 110 76 50 32 23 29 36 36 17 -1 -1 -1 -1 -1 -1 -1 -1 -1 -1 -1 -1 -1 -1 -1 -1 -1 -1 -1 -1 -1 -1 -1 -1 -1 -1
-1 -1 -1 -1 -1 -1 -1 -1 38 128 186 214 235 302 493 765 999 1223 1371 1472 1559 1639 1717 1786 1838 1870 1874 1847 1779 1670 1512 1367 1289 1303 1358 1430 1500 1555 1589 1599 1586 1553 1496 1418 1322 1225 1151 1128 1133 1156 1180 1196 1203 1194 1177 1164 1159 1164 1175 1185 1195 1201 1198 1183 1160 1139 1136 1145 1147 1131 1101 1079 1062 1056 1041 1016 991 968 948 935 922 905 883 859 831 795 752 706 662 625 594 571 555 547 535 510 476 428 405 392 414 430 453 464 463 448 410 366 312 317 325 348 368 394 423 447 463 458 434 386 323 241 162 104 116 158 211 256 285 293 273 230 170 103 48 20 52 93 130 155 170 178 177 165 141 108 72 41 26 22 30 39 38 17 -1 -1 -1 -1 -1 -1 -1 -1 -1 -1 -1 -1 -1 -1 -1 -1 -1 -1 -1 -1 -1 -1 -1 -1 -1 -1
-1 -1 -1 -1 -1 -1 -1 15 187 333 432 486 504 525 575 699 899 1080 1229 1355 1466 1574 1673 1754 1819 1861 1874 1854 1799 1707 1597 1515 1489 1502 1538 1577 1612 1642 1655 1650 1625 1584 1527 1452 1365 1283 1226 1204 1213 1226 1242 1251 1247 1236 1220 1211 1211 1217 1227 1235 1244 1245 1240 1225 1205 1191 1187 1190 1183 1169 1149 1127 1110 1085 1045 993 936 888 860 847 838 826 817 814 808 795 775 747 717 684 652 622 593 566 535 504 461 446 425 410 385 398 405 417 425 423 406 365 318 269 269 271 286 313 351 394 425 439 426 391 329 252 174 129 156 209 263 304 322 313 274 215 146 89 46 77 110 150 180 196 201 198 188 170 142 107 71 42 24 23 32 42 40 19 -1 -1 -1 -1 -1 -1 -1 -1 -1 -1 -1 -1 -1 -1 -1 -1 -1 -1 -1 -1 -1 -1 -1 -1 -1 -1
-1 -1 -1 -1 -1 -1 -1 86 283 462 606 701 750 764 793 830 909 1051 1194 1314 1437 1552 1654 1741 1808 1856 1877 1867 1825 1756 1695 1658 1643 1649 1667 1679 1691 1698 1694 1679 1649 1607 1551 1487 1414 1346 1304 1287 1281 1287 1290 1289 1280 1265 1252 1246 1247 1254 1263 1272 1279 1281 1275 1263 1248 1237 1231 1226 1218 1203 1183 1162 1136 1099 1050 978 893 817 770 756 745 728 731 738 753 760 759 748 728 702 674 641 607 568 531 494 489 482 468 436 397 359 357 360 372 383 384 367 327 281 235 222 220 242 286 341 388 412 411 384 332 260 186 167 195 252 305 340 346 315 257 182 122 73 101 134 175 202 218 221 215 203 189 170 143 110 77 48 32 31 38 44 39 19 -1 -1 -1 -1 -1 -1 -1 -1 -1 -1 -1 -1 -1 -1 -1 -1 -1 -1 -1 -1 -1 -1 -1 -1 -1 -1
-1 -1 -1 -1 -1 -1 -1 126 335 534 703 837 923 975 998 1026 1071 1149 1246 1359 1469 1571 1663 1744 1807 1853 1880 1881 1853 1814 1781 1761 1753 1751 1749 1744 1732 1720 1705 1683 1655 1619 1571 1519 1460 1407 1368 1346 1331 1319 1311 1300 1285 1269 1258 1253 1255 1262 1273 1285 1296 1301 1300 1292 1283 1274 1263 1253 1239 1220 1198 1173 1144 1106 1052 980 896 813 742 700 673 672 634 655 671 694 713 715 708 693 672 644 608 569 529 517 516 515 498 461 409 358 326 323 328 340 350 354 337 297 251 208 192 201 240 297 348 381 392 374 328 264 213 198 229 282 336 364 351 300 219 150 98 125 159 202 228 243 241 228 208 190 175 161 144 119 89 62 50 46 49 46 34 12 -1 -1 -1 -1 -1 -1 -1 -1 -1 -1 -1 -1 -1 -1 -1 -1 -1 -1 -1 -1 -1 -1 -1 -1 -1 -1
-1 -1 -1 -1 -1 -1 -1 135 356 563 757 911 1033 1111 1163 1201 1244 1295 1364 1440 1523 1607 1682 1746 1805 1849 1879 1890 1881 1861 1844 1831 1821 1811 1796 1772 1740 1707 1679 1657 1634 1608 1576 1537 1493 1449 1412 1379 1347 1318 1293 1271 1251 1233 1221 1217 1220 1229 1247 1268 1286 1300 1307 1308 1303 1294 1282 1264 1241 1213 1184 1154 1124 1090 1045 986 920 848 785 738 704 652 646 604 591 627 645 663 668 667 657 637 608 573 550 540 540 533 515 478 425 368 334 324 319 307 315 328 335 318 279 234 198 188 213 261 312 351 368 356 318 268 226 218 246 301 352 371 345 272 194 126 151 187 232 258 272 265 244 213 179 154 143 146 143 127 104 85 73 70 64 51 27 -1 -1 -1 -1 -1 -1 -1 -1 -1 -1 -1 -1 -1 -1 -1 -1 -1 -1 -1 -1 -1 -1 -1 -1 -1 -1 -1
-1 -1 -1 -1 -1 -1 -1 119 352 579 775 954 1090 1197 1273 1328 1377 1422 1470 1523 1577 1630 1684 1740 1790 1837 1871 1891 1895 1889 1880 1869 1857 1841 1814 1774 1720 1658 1612 1582 1570 1560 1548 1527 1499 1466 1429 1385 1334 1282 1238 1200 1172 1151 1134 1130 1133 1157 1184 1213 1246 1275 1296 1306 1307 1300 1285 1261 1224 1180 1138 1100 1072 1048 1017 978 932 884 840 802 763 732 695 662 622 566 581 593 616 637 639 629 608 585 568 558 551 540 521 487 443 397 368 352 330 303 281 297 323 332 309 266 218 188 194 230 280 320 340 333 302 261 229 217 245 299 352 371 334 268 186 189 214 262 294 304 294 268 229 180 125 94 96 119 132 131 120 107 99 91 79 56 21 -1 -1 -1 -1 -1 -1 -1 -1 -1 -1 -1 -1 -1 -1 -1 -1 -1 -1 -1 -1 -1 -1 -1 -1 -1 -1 -1
-1 -1 -1 -1 -1 -1 -1 88 339 572 787 965 1124 1242 1338 1409 1460 1502 1536 1567 1595 1621 1655 1702 1756 1810 1854 1882 1895 1896 1891 1881 1867 1846 1814 1763 1688 1592 1502 1460 1446 1461 1472 1477 1472 1454 1422 1374 1311 1236 1160 1097 1056 1022 1002 992 1013 1043 1082 1128 1179 1229 1266 1289 1295 1291 1276 1248 1202 1138 1068 1020 992 975 963 944 919 891 866 842 819 794 764 727 672 612 541 529 572 597 617 617 607 592 577 563 550 535 517 494 465 434 408 384 346 297 266 266 310 336 327 290 239 194 179 206 248 285 304 302 280 249 220 208 230 284 342 366 342 278 257 267 300 327 342 330 296 249 195 132 76 20 46 80 110 122 125 123 117 109 90 58 18 -1 -1 -1 -1 -1 -1 -1 -1 -1 -1 -1 -1 -1 -1 -1 -1 -1 -1 -1 -1 -1 -1 -1 -1 -1 -1 -1
-1 -1 -1 -1 -1 -1 -1 46 302 555 775 974 1132 1264 1363 1442 1495 1527 1546 1552 1555 1561 1584 1639 1710 1775 1830 1863 1880 1885 1881 1872 1856 1836 1802 1746 1658 1538 1403 1291 1278 1295 1343 1380 1404 1408 1389 1350 1290 1210 1110 1011 931 881 836 838 860 903 952 1022 1100 1172 1230 1259 1269 1267 1257 1230 1182 1111 1027 950 902 893 890 884 878 864 851 842 833 820 798 765 718 658 596 554 520 558 580 596 594 584 571 555 537 520 504 493 479 461 441 408 353 285 236 255 298 327 324 293 244 193 164 179 212 240 254 257 249 227 206 197 220 269 330 370 362 343 340 357 379 389 375 338 276 208 141 86 23 27 4 42 70 98 114 122 122 113 90 54 8 -1 -1 -1 -1 -1 -1 -1 -1 -1 -1 -1 -1 -1 -1 -1 -1 -1 -1 -1 -1 -1 -1 -1 -1 -1 -1 -1
-1 -1 -1 -1 -1 -1 -1 -1 246 506 753 957 1122 1250 1352 1425 1473 1491 1488 1472 1449 1454 1496 1585 1673 1750 1804 1840 1854 1857 1854 1845 1832 1814 1783 1731 1646 1523 1358 1187 1076 1098 1156 1236 1291 1318 1323 1303 1264 1200 1111 1002 891 794 716 691 699 738 822 921 1029 1123 1185 1220 1232 1232 1226 1210 1172 1113 1034 947 874 840 829 833 823 814 809 810 815 814 802 778 743 697 648 594 542 496 533 556 562 558 547 532 513 495 483 482 485 481 462 424 355 272 214 232 276 299 296 269 229 180 143 146 164 180 192 200 201 201 192 189 213 267 329 383 407 412 419 436 447 437 398 330 240 146 88 36 56 50 40 2 28 56 87 105 111 100 74 31 -1 -1 -1 -1 -1 -1 -1 -1 -1 -1 -1 -1 -1 -1 -1 -1 -1 -1 -1 -1 -1 -1 -1 -1 -1 -1 -1 -1
-1 -1 -1 -1 -1 -1 -1 -1 154 432 686 898 1065 1192 1286 1351 1387 1390 1368 1326 1312 1328 1444 1557 1658 1730 1780 1804 1815 1817 1813 1807 1793 1780 1757 1717 1647 1540 1388 1202 1009 907 975 1048 1133 1185 1212 1223 1214 1182 1124 1041 948 850 747 620 556 604 703 842 973 1074 1141 1173 1184 1186 1187 1184 1164 1123 1065 987 918 874 848 814 796 780 771 773 780 788 788 776 751 719 675 619 536 466 472 501 512 509 503 493 477 462 459 470 486 491 475 434 365 276 200 207 230 248 239 219 190 152 125 105 114 122 128 136 158 176 179 185 216 271 346 410 454 477 493 504 502 472 410 315 197 95 37 72 92 98 66 27 -1 12 45 74 83 71 38 -1 -1 -1 -1 -1 -1 -1 -1 -1 -1 -1 -1 -1 -1 -1 -1 -1 -1 -1 -1 -1 -1 -1 -1 -1 -1 -1 -1 -1
-1 -1 -1 -1 -1 -1 -1 -1 34 315 569 782 941 1055 1142 1204 1226 1227 1190 1168 1162 1300 1436 1564 1650 1713 1747 1762 1761 1759 1757 1750 1744 1736 1725 1696 1645 1560 1442 1277 1104 956 815 875 937 1002 1051 1095 1121 1130 1115 1074 1016 935 823 694 568 505 631 795 931 1033 1095 1120 1123 1126 1134 1145 1145 1127 1089 1038 983 939 902 866 830 806 782 759 752 760 764 762 748 723 681 612 517 429 417 432 440 444 441 438 432 427 434 464 489 497 483 443 379 296 223 162 176 172 167 149 132 117 98 83 73 77 87 105 134 164 178 191 226 295 373 450 503 537 558 565 547 499 415 297 165 55 67 107 135 127 90 36 -1 -1 1 34 43 29 -1 -1 -1 -1 -1 -1 -1 -1 18 45 47 23 -1 -1 -1 -1 -1 -1 -1 -1 -1 -1 -1 -1 -1 -1 -1 -1 -1 -1
-1 -1 -1 -1 -1 -1 -1 -1 -1 151 400 587 719 817 894 955 1001 1001 1014 1009 1167 1321 1468 1574 1648 1686 1706 1701 1694 1682 1673 1674 1676 1683 1680 1664 1626 1569 1480 1368 1228 1058 897 735 774 790 852 908 974 1029 1061 1064 1041 982 890 759 592 478 591 761 902 999 1049 1057 1049 1046 1064 1090 1110 1115 1099 1064 1022 986 952 918 887 854 820 786 760 740 741 742 735 714 665 583 483 405 378 381 386 387 385 391 389 393 425 462 493 504 489 446 383 309 226 155 101 104 92 78 78 83 80 67 56 67 87 115 147 180 202 217 252 324 414 493 556 596 619 619 585 516 410 279 136 57 91 148 162 140 95 36 -1 -1 -1 -1 0 -1 -1 -1 -1 -1 -1 -1 -1 4 56 90 97 67 -1 -1 -1 -1 -1 -1 -1 -1 -1 -1 -1 -1 -1 -1 -1 -1 -1 -1
-1 -1 -1 -1 -1 -1 -1 -1 -1 -1 169 320 402 472 542 629 709 796 846 1041 1213 1376 1495 1579 1627 1649 1644 1629 1601 1572 1562 1569 1595 1614 1622 1618 1594 1551 1494 1417 1312 1176 1000 832 652 644 624 686 777 881 955 1005 1016 985 905 774 589 455 556 741 880 967 998 985 954 947 970 1016 1062 1088 1087 1061 1025 990 962 938 915 888 855 818 779 750 728 724 720 697 644 554 461 419 401 389 393 389 377 363 366 384 422 464 499 509 488 439 373 296 212 132 78 59 51 49 64 72 77 66 60 72 110 148 189 224 255 274 304 365 454 542 611 655 675 665 616 523 397 246 129 70 131 176 176 138 78 21 -1 -1 -1 -1 -1 -1 -1 -1 -1 -1 -1 -1 6 50 105 143 149 114 30 -1 -1 -1 -1 -1 -1 -1 -1 -1 -1 -1 -1 -1 -1 -1 -1 -1
-1 -1 -1 -1 -1 -1 -1 -1 -1 -1 -1 41 101 124 221 354 504 665 899 1099 1283 1413 1502 1558 1588 1589 1570 1529 1474 1429 1413 1443 1490 1531 1558 1561 1543 1507 1468 1416 1349 1250 1116 941 769 580 512 495 601 701 816 900 949 944 881 750 559 422 537 716 858 938 952 902 849 828 868 937 1011 1057 1061 1031 987 947 920 911 904 893 871 839 804 769 739 718 710 690 633 561 506 480 461 455 436 426 399 392 386 406 439 480 509 514 483 422 347 263 187 120 113 94 82 78 82 100 97 94 86 101 139 196 244 288 325 359 390 433 508 597 667 715 729 708 637 527 375 223 99 120 170 200 176 116 50 -1 -1 -1 -1 -1 -1 -1 -1 20 33 43 45 50 73 116 169 204 210 166 68 -1 -1 -1 -1 -1 -1 -1 -1 -1 -1 -1 -1 -1 -1 -1 -1 -1
-1 -1 -1 -1 -1 -1 -1 -1 -1 -1 -1 -1 -1 53 179 347 553 773 989 1184 1326 1422 1478 1512 1529 1524 1483 1403 1309 1242 1239 1295 1372 1444 1491 1501 1476 1442 1401 1370 1335 1279 1190 1066 903 746 614 533 452 548 649 770 849 874 827 704 518 389 506 695 835 909 905 829 732 715 770 873 968 1027 1034 996 929 870 845 841 857 865 859 842 818 786 753 729 719 698 664 627 594 571 553 529 512 479 461 440 446 454 479 509 530 521 477 400 308 219 147 165 177 176 160 153 145 152 155 143 147 161 194 251 314 363 410 455 490 537 587 657 732 775 786 748 661 521 365 191 104 146 207 210 165 84 7 5 17 28 20 11 11 28 53 84 110 122 135 143 159 198 243 279 280 232 116 -1 -1 -1 -1 -1 -1 -1 -1 -1 -1 -1 -1 -1 -1 -1 -1 -1
-1 -1 -1 -1 -1 -1 -1 -1 -1 14 55 100 177 280 407 568 742 932 1103 1243 1338 1391 1419 1444 1462 1463 1407 1279 1121 1037 1062 1148 1260 1361 1430 1445 1412 1354 1309 1283 1274 1259 1217 1143 1039 918 789 639 509 398 495 614 734 786 756 645 472 360 480 677 815 877 860 764 644 602 695 830 942 1006 1016 971 899 806 754 757 782 806 820 820 813 796 772 755 742 733 719 702 686 669 654 628 591 569 534 521 512 528 541 557 564 542 480 387 272 173 144 201 251 267 261 246 244 235 238 233 228 247 279 328 395 455 508 553 607 643 691 743 800 843 843 792 676 519 323 185 110 179 225 208 134 47 -1 26 71 92 97 87 85 99 126 161 193 213 227 245 267 292 335 364 363 308 181 -1 -1 -1 -1 -1 -1 -1 -1 -1 -1 -1 -1 -1 -1 -1 -1 -1
-1 -1 -1 -1 -1 -1 -1 -1 73 191 287 373 470 573 690 819 946 1065 1177 1257 1301 1316 1331 1358 1411 1423 1359 1209 1001 889 917 1034 1173 1296 1373 1398 1365 1282 1195 1161 1163 1183 1190 1166 1109 1023 905 755 567 413 343 478 617 684 665 571 421 337 474 662 792 842 811 709 576 527 634 794 922 993 1004 968 887 794 699 685 700 731 756 774 787 791 788 782 781 778 778 774 772 763 753 729 698 661 639 609 605 605 620 625 614 581 510 402 272 167 171 225 302 349 364 362 345 345 338 345 343 353 384 430 490 558 611 666 714 767 801 842 887 917 908 836 696 484 285 123 151 210 243 191 99 7 9 53 120 165 178 181 177 187 217 250 283 311 332 353 374 404 433 460 453 392 255 47 -1 -1 -1 -1 39 25 -1 -1 -1 -1 -1 -1 -1 -1 -1 -1
-1 -1 -1 -1 -1 -1 -1 -1 157 322 463 588 696 801 905 1002 1084 1148 1191 1211 1204 1204 1215 1300 1374 1404 1355 1219 1032 849 852 956 1099 1226 1315 1352 1330 1243 1104 1008 1012 1054 1104 1125 1107 1052 957 816 638 430 303 376 505 564 547 464 371 329 488 655 759 789 751 649 530 484 602 777 907 980 997 965 896 795 710 640 639 649 679 711 741 767 786 800 811 824 832 841 845 850 843 833 808 777 745 723 703 707 709 706 685 644 573 463 337 228 170 239 329 409 461 479 471 459 463 462 475 483 503 545 604 665 730 780 838 882 920 951 982 1002 982 888 708 469 203 112 165 250 258 192 65 9 35 99 172 232 266 278 288 294 319 354 384 419 447 467 490 511 539 557 549 481 335 118 -1 -1 -1 45 102 84 -1 -1 -1 -1 -1 -1 -1 -1 -1 -1
-1 -1 -1 -1 -1 -1 -1 0 203 394 564 710 833 938 1026 1097 1139 1151 1135 1093 1065 1049 1144 1253 1352 1399 1372 1273 1111 950 821 893 1006 1140 1241 1298 1297 1222 1079 905 833 891 971 1022 1042 1017 946 831 668 474 298 321 380 425 397 346 284 393 518 644 711 717 667 569 486 471 627 783 904 967 983 957 896 817 724 655 599 595 611 643 680 721 757 789 820 846 875 894 914 927 932 926 916 894 866 838 828 817 812 804 780 738 668 569 447 296 189 220 336 449 535 591 607 595 592 600 605 621 633 674 724 788 847 908 960 1005 1033 1059 1085 1095 1060 948 746 459 221 152 212 289 300 216 120 61 80 155 233 302 352 386 404 422 436 466 501 530 562 587 608 627 642 656 643 570 417 203 19 -1 47 137 174 147 55 -1 -1 -1 -1 -1 -1 -1 -1 -1
-1 -1 -1 -1 -1 -1 -1 -1 212 418 602 760 893 993 1067 1108 1112 1073 999 920 868 955 1079 1223 1337 1400 1398 1326 1199 1038 902 810 906 1027 1156 1239 1257 1206 1083 906 727 739 797 876 923 924 877 785 660 500 362 237 264 262 257 218 311 418 536 614 643 620 551 486 429 549 677 814 904 949 955 933 885 816 743 663 605 563 564 583 617 656 696 739 786 837 885 932 967 992 1010 1017 1015 1007 986 971 951 941 931 914 896 857 796 710 582 403 235 209 324 475 598 683 735 745 735 742 749 754 775 802 858 911 971 1032 1086 1123 1152 1171 1188 1189 1143 1017 801 530 311 261 318 374 371 310 233 182 171 224 314 386 446 490 523 547 576 594 621 650 677 706 729 742 754 757 737 657 501 294 131 103 171 240 260 214 112 -1 -1 -1 -1 -1 -1 -1 -1 -1
-1 -1 -1 -1 -1 -1 -1 -1 190 400 596 764 893 988 1037 1045 1002 916 798 698 718 861 1047 1203 1328 1404 1418 1368 1264 1122 961 836 794 925 1073 1170 1209 1184 1093 942 777 607 640 697 762 780 749 686 594 488 361 253 146 150 130 213 314 427 513 554 547 495 442 385 497 612 742 834 892 913 909 888 851 797 733 667 604 560 537 542 563 589 619 658 714 784 863 939 999 1040 1072 1097 1108 1109 1106 1092 1083 1070 1053 1045 1018 993 946 872 750 562 363 273 333 490 653 770 841 882 893 890 899 901 910 944 989 1045 1095 1153 1206 1244 1270 1286 1289 1279 1222 1091 882 640 454 416 461 500 494 444 385 334 318 342 412 493 555 599 640 676 707 733 747 770 798 823 843 859 865 863 827 742 582 390 258 243 301 348 347 284 168 29 -1 -1 -1 -1 -1 -1 -1 -1
-1 -1 -1 -1 -1 -1 -1 -1 132 357 562 728 853 929 953 914 823 689 558 503 637 837 1035 1206 1331 1409 1431 1397 1312 1184 1030 864 772 858 994 1093 1146 1150 1100 994 831 668 505 538 569 591 569 523 467 395 316 217 129 60 113 203 310 402 456 467 427 383 333 437 556 685 776 837 860 859 844 823 792 749 698 644 596 558 532 526 533 542 556 577 629 714 818 915 1001 1069 1118 1158 1189 1206 1212 1214 1206 1197 1186 1164 1155 1125 1097 1040 941 783 590 431 412 532 699 849 945 1003 1040 1050 1048 1052 1059 1082 1127 1174 1227 1271 1319 1360 1384 1392 1391 1368 1302 1170 978 770 632 596 624 650 637 601 549 507 484 498 540 611 670 718 759 801 838 861 880 896 916 935 953 967 974 959 918 823 669 498 399 402 430 452 428 348 228 86 -1 -1 -1 -1 -1 -1 -1 -1
-1 -1 -1 -1 -1 -1 -1 -1 63 287 492 661 770 821 807 722 583 443 339 456 646 867 1062 1227 1342 1414 1439 1416 1344 1234 1089 925 784 820 907 1003 1068 1100 1088 1021 901 731 564 405 404 380 361 330 292 258 207 157 83 42 90 187 278 345 374 353 325 285 383 497 629 729 793 813 807 788 766 740 714 679 642 604 573 551 539 533 530 526 524 534 573 652 756 872 977 1070 1146 1204 1250 1285 1308 1320 1324 1322 1308 1297 1272 1265 1238 1201 1133 1019 850 668 557 603 761 924 1044 1120 1167 1194 1199 1201 1208 1227 1256 1303 1351 1397 1429 1463 1489 1494 1486 1456 1386 1257 1084 919 826 787 798 801 789 756 719 682 665 665 695 732 791 837 885 926 957 982 1001 1016 1032 1043 1057 1072 1071 1051 1001 905 762 626 556 547 558 548 502 410 284 142 -1 -1 -1 -1 -1 -1 -1 -1
-1 -1 -1 -1 -1 -1 -1 -1 -1 199 402 555 648 666 601 473 334 206 322 501 723 928 1112 1251 1356 1416 1439 1421 1366 1272 1147 997 868 767 827 895 974 1031 1053 1024 940 808 633 465 305 251 221 201 180 155 127 86 64 22 71 141 213 257 269 258 238 338 445 575 680 755 785 773 741 709 680 654 627 604 578 554 541 542 550 555 553 542 528 527 551 610 707 820 939 1049 1151 1233 1296 1345 1385 1410 1427 1431 1427 1411 1402 1381 1375 1349 1308 1228 1094 913 751 719 845 1002 1138 1230 1288 1319 1338 1347 1359 1366 1385 1422 1469 1509 1541 1564 1584 1590 1573 1540 1467 1347 1198 1080 1009 978 958 956 935 912 881 855 838 840 843 869 902 959 1003 1040 1069 1090 1109 1126 1136 1146 1157 1162 1157 1134 1079 984 861 757 704 682 668 635 568 466 339 193 37 -1 -1 -1 -1 -1 -1 -1
-1 -1 -1 -1 -1 -1 -1 -1 -1 89 282 421 483 461 355 220 88 202 387 610 820 1008 1160 1281 1361 1412 1429 1417 1375 1301 1197 1073 934 824 740 797 865 948 1000 1009 962 862 722 551 401 309 276 254 228 207 170 128 58 49 32 83 124 158 176 190 296 399 527 632 713 758 761 727 674 633 601 573 555 538 524 514 514 533 558 579 589 584 568 549 560 605 685 791 907 1026 1143 1245 1326 1393 1444 1486 1512 1530 1534 1528 1515 1506 1492 1486 1458 1405 1296 1128 948 888 950 1100 1235 1331 1398 1439 1463 1484 1498 1501 1510 1539 1578 1614 1639 1659 1673 1671 1654 1611 1541 1434 1320 1234 1177 1138 1115 1095 1078 1054 1031 1011 998 993 992 994 1025 1063 1110 1141 1167 1188 1202 1220 1231 1237 1243 1246 1234 1204 1148 1061 956 881 833 799 763 708 626 518 386 240 80 -1 -1 -1 -1 -1 -1 -1
-1 -1 -1 -1 -1 -1 -1 -1 -1 -1 133 247 284 222 118 -1 96 289 517 734 922 1080 1206 1298 1359 1394 1406 1402 1373 1319 1236 1130 1010 880 776 706 773 859 944 984 970 904 792 659 536 452 401 371 340 298 252 188 126 67 52 39 71 102 147 254 361 483 586 671 724 745 728 679 617 570 546 524 514 506 501 498 504 527 558 592 614 624 615 601 593 633 703 801 907 1021 1136 1248 1348 1425 1491 1543 1585 1612 1627 1629 1623 1614 1610 1599 1590 1546 1455 1306 1136 1062 1094 1204 1329 1431 1498 1550 1584 1606 1622 1629 1634 1653 1681 1708 1727 1744 1750 1742 1719 1675 1607 1519 1434 1369 1319 1279 1246 1223 1201 1181 1164 1143 1133 1126 1123 1125 1133 1165 1195 1228 1251 1270 1287 1297 1310 1314 1316 1313 1299 1265 1210 1130 1045 982 935 893 838 765 671 554 415 262 97 -1 -1 -1 -1 -1 -1 -1
-1 -1 -1 -1 -1 -1 -1 -1 -1 -1 -1 53 56 19 -1 18 215 446 663 853 1016 1140 1233 1295 1335 1358 1372 1374 1360 1323 1260 1173 1065 944 819 722 690 793 894 956 965 927 848 746 648 567 506 452 404 347 284 216 146 98 63 101 129 171 242 333 444 543 626 683 715 718 690 638 575 533 516 521 520 522 520 519 522 530 557 585 613 634 647 649 657 678 748 834 936 1044 1151 1259 1357 1448 1525 1588 1638 1678 1703 1713 1715 1714 1708 1707 1693 1663 1586 1454 1308 1241 1245 1316 1424 1521 1596 1649 1688 1713 1733 1745 1749 1756 1774 1792 1805 1814 1814 1801 1772 1728 1668 1598 1534 1482 1435 1391 1353 1325 1303 1286 1270 1254 1240 1236 1234 1231 1236 1247 1273 1296 1321 1339 1354 1364 1371 1377 1376 1367 1350 1314 1262 1191 1122 1067 1018 959 890 803 699 563 419 246 59 -1 -1 -1 -1 -1 -1 -1
-1 -1 -1 -1 -1 -1 -1 -1 -1 -1 -1 -1 -1 -1 -1 167 389 610 802 959 1082 1174 1230 1265 1285 1307 1324 1338 1337 1314 1267 1197 1102 990 869 741 672 740 848 920 948 933 881 806 718 637 560 494 423 349 265 191 138 105 150 189 236 287 351 426 506 581 635 669 685 681 653 606 554 522 525 542 559 566 573 569 563 561 560 572 589 614 644 680 708 746 802 884 977 1078 1181 1277 1376 1466 1548 1618 1676 1722 1756 1776 1785 1789 1793 1790 1781 1754 1691 1581 1474 1403 1401 1439 1520 1613 1685 1740 1777 1807 1827 1838 1844 1847 1853 1863 1869 1871 1862 1845 1815 1772 1719 1664 1614 1565 1519 1474 1435 1403 1380 1361 1346 1334 1323 1316 1314 1312 1311 1317 1331 1352 1371 1390 1403 1412 1418 1420 1417 1406 1384 1349 1298 1243 1184 1134 1079 1009 924 826 697 557 378 177 -1 -1 -1 -1 -1 -1 -1 -1
-1 -1 -1 -1 -1 -1 -1 -1 -1 -1 -1 -1 -1 -1 151 356 566 756 911 1030 1115 1164 1188 1197 1213 1237 1271 1298 1308 1292 1255 1197 1118 1019 899 772 666 704 789 872 915 920 890 833 758 676 597 519 441 349 254 180 147 184 232 286 335 384 437 494 546 589 617 634 641 641 622 586 545 526 536 566 597 622 633 636 624 609 590 570 566 581 623 677 736 795 859 933 1021 1117 1214 1308 1398 1486 1568 1640 1699 1747 1785 1809 1825 1836 1846 1852 1846 1826 1776 1698 1621 1564 1538 1566 1619 1697 1769 1820 1856 1879 1900 1911 1916 1919 1919 1916 1914 1906 1892 1870 1839 1800 1755 1710 1665 1620 1573 1529 1488 1455 1425 1405 1388 1377 1369 1364 1360 1358 1358 1360 1370 1386 1403 1418 1431 1440 1444 1445 1439 1426 1403 1368 1328 1282 1235 1183 1121 1043 948 825 685 511 305 74 -1 -1 -1 -1 -1 -1 -1 -1
-1 -1 -1 -1 -1 -1 -1 -1 -1 -1 -1 -1 21 170 351 535 713 866 979 1058 1100 1109 1101 1101 1120 1174 1228 1266 1275 1261 1224 1174 1108 1024 920 799 699 654 731 812 864 885 876 840 780 711 636 560 478 393 304 250 241 268 314 363 408 449 488 524 552 569 578 585 598 605 602 576 550 534 545 578 620 661 687 698 694 672 637 594 558 556 590 656 732 812 893 975 1061 1154 1243 1337 1423 1509 1586 1652 1706 1751 1782 1806 1826 1847 1868 1886 1891 1880 1846 1796 1745 1699 1673 1676 1720 1779 1841 1887 1918 1939 1952 1962 1965 1965 1961 1951 1937 1920 1897 1871 1840 1805 1767 1728 1689 1647 1602 1557 1514 1473 1438 1407 1386 1374 1369 1366 1365 1366 1367 1373 1382 1395 1410 1424 1434 1442 1446 1447 1442 1429 1405 1376 1342 1305 1261 1212 1147 1066 959 825 656 455 230 -1 -1 -1 -1 -1 -1 -1 -1 -1
-1 -1 -1 -1 -1 -1 -1 -1 -1 -1 29 107 219 367 526 681 820 927 1000 1033 1031 1007 990 987 1062 1144 1209 1242 1244 1216 1174 1127 1076 1013 933 836 731 648 675 736 794 828 838 825 791 739 679 614 543 468 397 354 344 352 382 419 454 482 505 522 530 530 529 540 557 584 599 593 571 559 553 577 623 675 720 748 755 738 696 636 576 546 565 625 711 804 901 995 1085 1176 1267 1357 1444 1523 1591 1648 1691 1721 1744 1760 1785 1817 1859 1893 1912 1914 1899 1871 1838 1808 1783 1783 1809 1855 1902 1939 1964 1977 1985 1989 1990 1986 1977 1962 1940 1910 1876 1845 1813 1782 1750 1718 1685 1650 1609 1563 1513 1463 1414 1370 1338 1327 1321 1325 1328 1335 1342 1352 1362 1375 1389 1401 1412 1420 1427 1429 1425 1414 1394 1367 1336 1305 1269 1221 1160 1079 968 823 641 431 211 1 -1 -1 -1 -1 -1 -1 -1 -1
-1 -1 -1 -1 -1 -1 -1 -1 -1 13 137 251 374 509 650 776 876 938 959 949 911 882 862 956 1053 1143 1205 1230 1215 1167 1107 1058 1020 982 930 863 774 692 630 667 710 755 782 790 781 754 715 667 610 546 483 444 424 422 431 454 474 489 496 498 494 489 491 510 548 590 620 631 620 601 584 584 619 673 731 778 799 795 756 687 610 556 550 599 682 785 884 988 1082 1176 1268 1359 1444 1517 1575 1618 1643 1658 1660 1680 1708 1768 1829 1878 1910 1928 1929 1919 1903 1885 1872 1871 1889 1919 1951 1977 1989 1993 1991 1989 1985 1980 1969 1949 1919 1878 1832 1792 1757 1727 1700 1677 1653 1626 1591 1544 1489 1426 1363 1303 1261 1235 1238 1242 1256 1269 1284 1298 1312 1325 1339 1355 1367 1377 1386 1392 1392 1382 1364 1337 1308 1282 1253 1212 1157 1082 977 833 661 471 271 73 -1 -1 -1 -1 -1 -1 -1 -1
-1 -1 -1 -1 -1 -1 -1 -1 -1 12 174 322 455 586 704 806 866 885 861 807 770 740 854 968 1075 1157 1208 1221 1193 1133 1046 975 944 924 906 871 812 734 665 611 640 676 713 737 749 747 730 699 656 603 547 504 477 464 463 470 474 477 478 473 472 475 488 519 569 619 661 681 685 666 642 624 626 671 730 787 827 837 809 743 656 584 556 578 649 743 854 954 1055 1152 1249 1341 1422 1487 1533 1556 1562 1548 1553 1569 1635 1715 1790 1847 1890 1916 1931 1935 1934 1931 1929 1934 1946 1967 1987 1996 1994 1981 1965 1953 1949 1942 1934 1913 1878 1827 1767 1714 1674 1642 1618 1604 1593 1576 1547 1505 1449 1381 1302 1226 1160 1131 1120 1139 1159 1176 1194 1217 1234 1250 1269 1289 1301 1314 1325 1339 1346 1338 1318 1286 1255 1230 1209 1180 1136 1073 980 857 703 534 353 166 -1 -1 -1 -1 -1 -1 -1 -1
-1 -1 -1 -1 -1 -1 -1 -1 -1 -1 146 314 464 588 694 763 790 767 703 657 616 747 875 1007 1104 1172 1208 1213 1182 1114 1023 919 853 847 855 856 827 772 703 642 589 615 639 676 700 716 718 704 674 630 582 537 504 483 474 471 469 466 467 476 484 501 526 562 612 667 710 742 750 743 717 692 677 689 737 795 843 869 856 800 717 643 596 581 610 693 790 896 1003 1112 1213 1303 1381 1434 1461 1464 1439 1425 1420 1482 1574 1665 1742 1802 1846 1876 1896 1911 1925 1936 1949 1966 1982 1998 2006 2000 1974 1938 1905 1887 1876 1876 1870 1857 1822 1764 1688 1619 1565 1532 1512 1504 1502 1497 1481 1448 1397 1328 1250 1165 1080 1019 1011 1021 1043 1061 1089 1115 1137 1164 1189 1202 1218 1227 1248 1274 1292 1291 1260 1216 1173 1149 1133 1118 1093 1047 976 872 742 590 418 238 50 -1 -1 -1 -1 -1 -1 -1
-1 -1 -1 -1 -1 -1 -1 -1 -1 -1 59 250 400 522 605 650 649 594 542 499 638 779 929 1039 1123 1176 1201 1201 1173 1115 1022 918 802 761 793 819 816 785 734 670 615 565 585 610 644 670 684 685 667 636 594 552 515 489 473 469 466 474 484 502 525 555 587 626 674 723 771 802 819 817 800 775 753 749 772 819 865 898 900 860 796 735 675 632 614 641 719 824 944 1059 1164 1254 1322 1361 1368 1346 1315 1291 1337 1424 1520 1611 1682 1737 1775 1800 1820 1843 1868 1898 1934 1969 1996 2012 2010 1986 1935 1868 1815 1777 1769 1769 1780 1774 1747 1689 1602 1512 1444 1405 1390 1382 1389 1394 1388 1367 1328 1268 1197 1121 1043 959 916 919 925 951 977 1009 1042 1073 1092 1112 1113 1134 1160 1211 1247 1244 1198 1129 1068 1029 1021 1025 1020 1000 949 865 752 611 445 261 65 -1 -1 -1 -1 -1 -1 -1
-1 -1 -1 -1 -1 -1 -1 -1 -1 -1 -1 127 275 374 441 473 452 420 385 532 686 851 974 1068 1130 1167 1185 1183 1161 1112 1038 930 827 729 740 761 777 765 733 686 629 582 539 560 585 617 640 650 645 623 590 554 518 492 476 471 482 498 521 548 581 617 656 699 742 786 827 863 883 887 879 860 837 828 837 864 902 934 944 928 887 835 779 722 681 664 698 782 892 1007 1111 1196 1255 1278 1267 1233 1199 1214 1284 1379 1472 1544 1601 1646 1670 1682 1698 1725 1763 1823 1890 1950 1992 2012 2004 1962 1886 1783 1689 1632 1614 1632 1655 1662 1651 1601 1512 1409 1323 1275 1258 1259 1259 1271 1277 1265 1232 1188 1130 1073 1010 944 878 844 850 857 886 916 950 982 1007 1009 1022 1037 1104 1174 1214 1204 1136 1029 928 880 878 896 920 923 892 827 725 588 419 227 17 -1 -1 -1 -1 -1 -1 -1
-1 -1 -1 -1 -1 -1 -1 -1 -1 -1 -1 14 100 165 218 253 272 276 435 604 777 913 1013 1079 1120 1145 1160 1160 1142 1102 1038 960 864 776 695 706 711 717 701 670 630 582 543 514 538 569 596 607 605 592 568 539 512 491 480 485 504 533 566 602 637 679 722 762 803 844 881 913 938 948 946 935 919 905 909 925 948 976 992 990 967 930 884 833 789 764 761 801 878 975 1067 1144 1188 1199 1177 1143 1136 1181 1252 1333 1404 1459 1498 1524 1530 1525 1539 1570 1645 1742 1843 1923 1980 2005 1994 1941 1842 1708 1568 1461 1445 1466 1498 1529 1527 1487 1416 1310 1211 1163 1144 1136 1147 1149 1153 1139 1115 1079 1043 1002 963 915 867 827 801 808 823 852 883 908 920 928 930 997 1081 1157 1196 1173 1076 926 778 704 708 750 792 817 806 755 663 526 347 140 -1 -1 -1 -1 -1 -1 -1 -1
-1 -1 -1 -1 -1 -1 -1 -1 -1 -1 -1 -1 -1 27 73 128 206 380 539 713 856 959 1027 1067 1092 1112 1130 1133 1116 1073 1019 961 893 811 737 657 655 649 643 630 600 565 530 510 503 537 554 558 552 540 525 506 488 479 479 497 528 568 608 649 689 728 770 809 846 884 920 952 977 994 998 994 984 976 974 983 999 1017 1034 1038 1029 1005 974 938 903 878 872 881 920 978 1052 1109 1137 1136 1114 1095 1113 1155 1211 1268 1319 1355 1376 1379 1370 1371 1368 1442 1554 1685 1806 1904 1968 1997 1987 1931 1826 1685 1524 1383 1304 1308 1346 1373 1382 1355 1293 1216 1127 1082 1072 1074 1065 1060 1037 1016 990 968 944 925 895 871 844 816 794 792 809 824 843 852 857 857 908 989 1079 1154 1185 1151 1029 845 652 546 552 602 656 693 697 657 573 435 247 26 -1 -1 -1 -1 -1 -1 -1 -1
-1 -1 -1 -1 -1 -1 -1 -1 4 77 104 111 115 156 214 290 402 537 684 813 911 979 1013 1032 1050 1077 1103 1111 1088 1034 969 919 874 822 756 691 619 593 594 574 557 539 513 503 515 512 512 498 479 468 456 446 439 443 467 500 543 589 635 679 719 756 790 827 864 902 940 974 1002 1021 1031 1033 1030 1026 1024 1028 1035 1047 1058 1063 1060 1050 1034 1017 995 983 974 979 991 1025 1064 1102 1116 1107 1090 1081 1096 1122 1154 1190 1224 1245 1249 1237 1241 1235 1293 1388 1523 1667 1796 1897 1961 1991 1982 1933 1844 1722 1583 1435 1295 1242 1234 1257 1245 1217 1187 1133 1081 1062 1075 1085 1073 1029 988 952 923 900 898 873 863 850 838 823 820 818 816 817 813 815 812 851 919 1005 1095 1160 1184 1136 1010 805 603 480 450 486 535 571 580 550 469 329 138 -1 -1 -1 -1 -1 -1 -1 -1 -1
-1 -1 -1 -1 -1 -1 -1 -1 47 164 240 287 331 382 448 524 615 709 805 884 940 966 978 985 1018 1058 1091 1099 1070 1001 908 837 803 779 748 701 651 609 565 546 534 528 537 533 520 498 460 416 387 369 362 360 365 398 442 490 537 585 631 675 713 746 779 811 851 895 939 976 1006 1028 1041 1048 1050 1048 1047 1046 1046 1049 1052 1054 1053 1055 1057 1057 1055 1050 1050 1054 1063 1077 1098 1119 1124 1119 1106 1097 1093 1102 1116 1133 1150 1172 1159 1158 1166 1210 1289 1409 1549 1687 1808 1901 1962 1985 1974 1932 1865 1773 1663 1535 1415 1329 1278 1218 1189 1164 1141 1115 1100 1115 1140 1154 1141 1100 1049 1007 972 941 909 919 911 906 893 883 870 857 835 807 794 786 818 871 950 1037 1118 1176 1191 1139 1010 833 645 500 428 426 450 473 478 448 370 236 58 -1 -1 -1 -1 -1 -1 -1 -1 -1
-1 -1 -1 -1 -1 -1 -1 -1 55 212 332 424 498 567 635 702 765 829 881 917 929 929 927 958 1006 1055 1091 1097 1064 986 874 752 690 678 678 671 650 617 590 569 562 563 560 548 515 459 386 312 269 249 254 254 293 346 402 455 503 546 587 626 663 694 728 768 818 872 919 959 989 1011 1027 1036 1040 1038 1034 1027 1020 1012 1006 1000 1005 1017 1038 1058 1072 1082 1089 1097 1105 1114 1125 1136 1142 1142 1139 1133 1128 1133 1139 1149 1161 1154 1167 1178 1199 1253 1347 1469 1603 1730 1838 1917 1964 1974 1953 1913 1860 1792 1711 1619 1529 1451 1377 1317 1264 1239 1214 1198 1195 1211 1234 1247 1236 1204 1159 1115 1071 1029 1006 999 1000 991 975 953 928 894 851 809 776 789 830 901 984 1071 1146 1198 1208 1155 1043 890 720 569 465 403 396 406 403 374 303 182 52 -1 -1 -1 -1 -1 -1 -1 -1 -1
-1 -1 -1 -1 -1 -1 -1 -1 39 220 381 505 605 686 754 810 855 888 905 907 890 874 896 951 1008 1061 1095 1101 1067 990 868 712 599 556 567 583 574 575 572 569 572 569 556 527 475 395 292 190 135 134 134 169 218 279 341 393 435 470 499 532 568 609 653 716 779 836 884 923 950 973 986 995 998 995 983 969 953 933 914 911 917 950 991 1029 1056 1076 1090 1101 1109 1115 1122 1131 1141 1152 1162 1170 1176 1184 1195 1206 1214 1227 1239 1257 1293 1348 1431 1548 1667 1780 1872 1936 1963 1949 1909 1860 1811 1761 1706 1646 1581 1518 1461 1410 1373 1344 1327 1310 1308 1315 1328 1332 1324 1298 1255 1207 1161 1118 1088 1077 1070 1057 1037 1007 968 918 863 808 775 794 850 927 1016 1103 1175 1222 1229 1184 1088 955 801 647 511 415 371 372 373 346 289 217 135 63 -1 -1 -1 -1 -1 -1 -1 -1
-1 -1 -1 -1 -1 -1 -1 -1 29 218 394 546 662 749 815 859 886 897 889 864 841 835 891 952 1014 1064 1096 1102 1076 1007 891 762 630 519 509 451 474 473 480 509 521 521 498 458 395 302 199 92 46 35 49 79 137 205 264 308 338 359 386 414 451 518 597 672 738 792 835 867 892 907 918 926 930 920 901 877 845 814 790 781 815 872 934 985 1019 1043 1057 1065 1070 1073 1076 1084 1097 1123 1152 1178 1201 1221 1237 1257 1279 1304 1331 1358 1401 1460 1535 1628 1737 1832 1907 1952 1956 1915 1841 1765 1710 1672 1642 1604 1560 1510 1469 1437 1420 1403 1391 1386 1385 1391 1396 1396 1384 1360 1318 1265 1216 1166 1131 1109 1095 1079 1055 1022 976 920 859 806 773 800 866 951 1041 1129 1200 1244 1252 1214 1131 1012 868 707 555 431 382 380 388 375 345 296 235 159 65 -1 -1 -1 -1 -1 -1 -1
-1 -1 -1 -1 -1 -1 -1 -1 27 229 408 559 684 774 831 861 872 868 848 818 800 840 892 958 1011 1053 1082 1095 1082 1032 951 846 730 628 514 497 408 364 385 389 413 421 392 337 273 209 121 94 47 -1 -1 3 65 126 176 205 215 238 264 297 378 476 562 637 695 741 774 802 817 822 831 839 836 820 791 754 712 668 642 652 723 808 886 938 971 989 996 999 995 988 984 975 992 1027 1078 1129 1171 1203 1232 1264 1309 1358 1405 1448 1499 1563 1633 1714 1804 1884 1942 1967 1950 1881 1774 1660 1579 1557 1537 1514 1488 1461 1416 1415 1402 1394 1394 1400 1411 1420 1426 1427 1417 1391 1349 1298 1237 1182 1127 1090 1068 1049 1027 992 948 895 844 794 788 813 881 972 1064 1149 1221 1265 1273 1239 1163 1050 904 742 570 469 422 437 443 438 414 372 306 218 106 -1 -1 -1 -1 -1 -1 -1
-1 -1 -1 -1 -1 -1 -1 -1 52 237 419 569 687 771 820 836 832 820 803 780 809 847 902 949 989 1017 1046 1071 1082 1060 1008 935 848 756 683 598 526 436 322 279 293 295 283 217 184 151 151 118 69 17 -1 -1 12 62 90 99 118 127 175 261 365 462 542 600 644 677 705 724 727 731 737 733 723 699 662 614 564 525 506 577 673 774 844 889 911 917 917 910 896 880 845 829 822 863 936 1008 1064 1103 1144 1206 1278 1360 1436 1507 1568 1634 1711 1784 1860 1928 1975 1987 1952 1868 1743 1614 1524 1481 1467 1454 1442 1427 1428 1396 1383 1371 1364 1377 1388 1403 1420 1427 1421 1399 1359 1306 1243 1175 1110 1048 1004 984 956 927 890 854 815 820 825 854 914 997 1088 1173 1239 1283 1290 1257 1178 1059 909 731 609 515 521 524 524 507 475 420 339 230 99 -1 -1 -1 -1 -1 -1 -1
-1 -1 -1 -1 -1 -1 -1 -1 59 246 418 568 680 758 797 802 787 772 755 781 812 857 892 922 939 960 988 1038 1074 1080 1055 1007 946 882 811 738 650 541 426 315 223 210 221 250 230 211 180 137 80 16 16 26 37 33 41 54 73 120 190 284 383 463 519 557 582 609 630 635 642 642 629 622 599 567 525 476 434 405 468 561 671 752 809 836 839 836 827 810 786 746 716 667 683 723 774 869 896 917 984 1080 1196 1315 1424 1514 1600 1679 1754 1832 1902 1962 2003 2009 1973 1889 1776 1657 1577 1546 1527 1514 1509 1498 1482 1461 1430 1406 1380 1350 1344 1368 1387 1404 1406 1392 1358 1304 1242 1177 1108 1037 967 914 884 851 841 810 824 850 887 918 966 1035 1115 1196 1260 1298 1304 1265 1178 1047 875 749 630 635 632 631 608 567 509 428 321 189 39 -1 -1 -1 -1 -1 -1 -1
-1 -1 -1 -1 -1 -1 -1 -1 30 225 401 552 666 740 775 775 752 729 740 767 809 840 863 868 875 886 945 1010 1066 1091 1088 1059 1013 957 891 814 723 621 500 383 278 299 322 320 295 243 184 130 65 68 74 92 98 97 97 105 139 190 257 337 409 462 494 509 525 543 551 561 559 542 527 502 475 439 394 363 333 389 479 586 674 740 769 772 763 746 734 706 671 631 591 633 687 748 801 780 782 775 829 944 1103 1247 1373 1490 1591 1688 1775 1856 1925 1986 2024 2033 2003 1935 1840 1752 1699 1668 1655 1641 1626 1604 1576 1540 1498 1452 1406 1361 1337 1322 1345 1365 1382 1378 1350 1304 1247 1182 1112 1042 974 913 864 851 819 818 838 888 938 987 1031 1082 1149 1220 1281 1317 1316 1268 1169 1023 883 757 756 750 752 723 669 593 497 382 245 93 -1 -1 -1 -1 -1 -1 -1 -1
-1 -1 -1 -1 -1 -1 -1 -1 -1 168 356 518 643 723 760 759 737 714 722 750 780 805 810 809 803 848 918 999 1060 1098 1108 1088 1045 986 911 824 731 626 527 418 423 421 413 371 295 216 153 102 121 133 155 170 182 192 201 216 242 287 344 393 437 463 466 470 476 483 494 497 480 458 419 388 358 323 296 281 338 416 513 607 681 718 720 706 680 658 631 618 587 573 578 640 727 819 873 896 875 845 782 867 1002 1169 1309 1438 1558 1668 1768 1856 1937 1998 2042 2056 2037 1984 1916 1855 1819 1795 1773 1757 1732 1699 1653 1598 1534 1471 1411 1367 1332 1308 1309 1335 1354 1361 1343 1303 1246 1176 1102 1034 983 943 916 890 871 856 878 920 980 1035 1089 1138 1191 1250 1302 1333 1328 1277 1171 1040 918 886 873 876 844 782 686 563 420 266 107 -1 -1 -1 -1 -1 -1 -1 -1 -1
-1 -1 -1 -1 -1 -1 -1 -1 -1 89 288 464 602 697 745 754 737 718 712 722 747 758 761 755 784 842 919 997 1063 1104 1116 1098 1049 977 886 784 681 598 518 525 514 500 450 362 269 170 141 169 195 223 238 254 272 290 309 330 353 385 423 455 467 465 452 439 439 448 456 452 436 384 326 287 253 240 238 297 370 463 551 628 678 691 671 632 602 574 548 562 617 644 653 656 744 838 936 1000 1024 987 923 831 932 1063 1230 1374 1505 1628 1740 1843 1931 2003 2053 2075 2069 2037 1991 1947 1914 1887 1863 1838 1804 1758 1697 1621 1543 1463 1403 1359 1328 1320 1315 1312 1334 1343 1335 1297 1235 1158 1076 999 971 956 952 941 929 923 930 962 1012 1073 1127 1181 1230 1278 1321 1348 1342 1292 1207 1104 1043 1012 998 962 903 801 659 479 278 88 -1 -1 -1 -1 -1 -1 -1 -1 -1 -1
-1 -1 -1 -1 -1 -1 -1 -1 -1 -1 197 382 539 653 724 751 749 737 728 728 725 727 731 749 793 858 932 1007 1067 1108 1119 1096 1038 949 841 736 635 582 596 591 574 521 435 339 234 230 240 268 296 316 326 338 357 381 407 431 455 477 499 509 499 475 447 428 422 431 440 443 418 361 277 213 192 195 257 332 420 507 587 647 678 671 626 571 534 505 539 584 656 716 739 743 740 830 933 1039 1103 1114 1046 947 854 976 1119 1292 1437 1572 1697 1813 1913 1994 2055 2090 2098 2081 2049 2012 1974 1939 1909 1878 1839 1786 1713 1632 1541 1471 1406 1369 1360 1346 1331 1321 1318 1334 1328 1290 1227 1147 1058 978 933 942 950 962 967 970 979 1000 1039 1089 1149 1205 1260 1305 1342 1365 1361 1325 1261 1199 1154 1123 1081 1021 922 789 607 373 127 -1 -1 -1 -1 -1 -1 -1 -1 -1 -1 -1
-1 -1 -1 -1 -1 -1 -1 -1 -1 -1 75 278 449 589 687 743 764 763 758 753 748 748 750 773 818 880 947 1014 1073 1109 1118 1091 1025 924 818 715 675 661 654 633 580 497 409 311 320 331 359 381 396 401 408 416 431 456 486 517 540 560 567 563 535 495 455 430 424 437 451 452 425 364 283 203 170 209 280 365 454 539 611 663 682 661 608 543 509 518 524 597 665 741 793 812 814 812 905 1014 1118 1171 1152 1049 944 881 1023 1170 1346 1497 1640 1768 1885 1979 2049 2097 2117 2111 2085 2047 1998 1953 1913 1880 1843 1792 1723 1640 1568 1502 1455 1421 1397 1375 1349 1334 1325 1338 1330 1293 1233 1153 1069 993 939 905 923 944 966 980 994 1013 1045 1092 1147 1212 1272 1324 1363 1385 1386 1363 1323 1283 1241 1193 1133 1045 930 768 559 327 89 -1 -1 -1 -1 -1 -1 -1 -1 -1 -1 -1
-1 -1 -1 -1 -1 -1 -1 -1 -1 -1 -1 141 338 501 632 721 768 787 793 793 795 793 799 813 852 902 962 1022 1075 1111 1118 1089 1024 933 830 780 756 733 693 628 543 461 376 395 416 447 463 476 478 475 473 475 489 510 541 573 604 624 629 614 575 520 470 439 441 459 474 471 440 376 291 223 180 221 291 377 463 546 619 668 686 667 620 579 563 557 569 569 649 719 797 852 873 882 884 979 1090 1182 1211 1162 1065 976 910 1060 1217 1406 1567 1715 1840 1950 2034 2094 2126 2127 2102 2056 2000 1938 1887 1855 1825 1789 1734 1671 1613 1565 1516 1470 1428 1388 1364 1342 1357 1357 1342 1302 1243 1175 1096 1025 958 909 886 910 933 952 967 986 1019 1068 1130 1198 1271 1333 1379 1406 1413 1404 1378 1343 1297 1236 1161 1067 935 766 589 390 188 3 -1 -1 -1 -1 -1 -1 -1 -1 -1 -1
-1 -1 -1 -1 -1 -1 -1 -1 -1 -1 -1 -1 199 392 554 677 758 803 824 835 843 846 848 862 884 927 975 1027 1075 1111 1120 1097 1041 965 901 861 825 774 692 592 500 424 445 479 521 541 545 540 532 520 510 509 517 536 564 602 640 667 676 661 619 553 488 462 470 489 503 495 455 388 307 233 221 221 286 354 435 516 590 650 683 684 664 646 634 626 613 612 597 675 758 844 907 934 953 971 1064 1169 1237 1250 1198 1097 998 943 1103 1281 1479 1641 1786 1907 2007 2081 2124 2133 2108 2060 1993 1922 1859 1819 1804 1783 1749 1708 1667 1619 1561 1493 1430 1391 1368 1386 1388 1380 1350 1306 1251 1189 1124 1054 987 930 889 875 893 902 911 925 959 1016 1091 1177 1254 1329 1385 1422 1440 1439 1420 1386 1334 1266 1186 1085 953 811 657 497 325 171 35 -1 -1 -1 -1 -1 -1 -1 -1 -1
-1 -1 -1 -1 -1 -1 -1 -1 -1 -1 -1 -1 49 254 450 609 728 804 848 872 887 892 895 899 916 943 982 1025 1074 1109 1126 1113 1075 1022 974 926 867 779 667 549 461 468 513 569 599 605 593 575 555 535 517 506 509 526 561 604 649 689 709 703 663 595 529 505 513 531 539 522 474 400 327 276 273 278 261 309 364 437 521 602 665 697 710 709 705 696 680 652 625 611 696 791 888 964 1006 1043 1083 1162 1248 1299 1303 1245 1142 1044 998 1175 1356 1555 1714 1852 1967 2060 2116 2135 2115 2066 1995 1920 1853 1808 1786 1779 1764 1740 1705 1653 1577 1491 1417 1390 1415 1426 1420 1391 1347 1298 1248 1200 1148 1088 1024 963 921 889 861 859 855 864 896 960 1048 1139 1234 1312 1380 1427 1458 1466 1452 1415 1361 1292 1209 1097 980 853 721 575 425 266 118 -1 -1 -1 -1 -1 -1 -1 -1 -1
-1 -1 -1 -1 -1 -1 -1 -1 -1 -1 -1 -1 -1 94 309 507 671 788 861 900 922 929 928 925 929 944 974 1019 1067 1112 1134 1136 1113 1075 1023 962 876 763 632 518 477 516 585 632 647 634 607 576 547 519 493 476 470 490 531 585 643 692 727 736 708 650 592 568 572 584 582 556 498 424 354 342 341 331 309 275 284 343 427 532 625 694 736 760 769 764 752 720 673 631 620 712 827 941 1034 1097 1149 1199 1269 1340 1379 1370 1304 1203 1114 1082 1265 1442 1630 1787 1921 2027 2099 2130 2122 2078 2012 1936 1865 1814 1786 1774 1773 1761 1728 1665 1583 1487 1438 1448 1463 1463 1433 1382 1325 1275 1236 1202 1166 1121 1069 1016 964 911 871 839 831 834 863 917 1002 1101 1199 1291 1364 1427 1467 1485 1474 1436 1382 1312 1217 1112 992 866 734 593 441 278 104 -1 -1 -1 -1 -1 -1 -1 -1 -1
-1 -1 -1 -1 -1 -1 -1 -1 -1 -1 -1 -1 -1 -1 152 382 589 748 857 920 949 956 949 934 923 933 962 1011 1064 1113 1147 1158 1145 1106 1047 964 856 726 595 508 510 571 637 670 662 628 587 548 512 479 450 425 425 440 490 554 624 689 738 761 752 712 667 640 639 643 633 596 527 449 399 385 395 394 371 335 299 282 356 455 567 665 741 790 822 834 824 804 758 695 639 640 747 878 1012 1122 1203 1267 1326 1388 1442 1467 1445 1380 1285 1210 1190 1360 1531 1712 1863 1987 2073 2120 2125 2093 2033 1957 1888 1831 1794 1775 1777 1770 1737 1675 1588 1542 1517 1518 1516 1486 1428 1354 1287 1242 1216 1197 1178 1150 1111 1060 998 934 878 859 851 842 844 883 960 1055 1162 1259 1351 1420 1473 1496 1490 1455 1398 1318 1223 1101 967 819 670 522 370 200 11 -1 -1 -1 -1 -1 -1 -1 -1 -1
-1 -1 -1 -1 -1 -1 -1 -1 -1 16 -1 -1 -1 -1 10 242 485 686 832 925 968 974 959 933 913 922 959 1010 1068 1121 1161 1178 1165 1120 1043 938 812 676 560 512 548 623 678 685 651 594 539 494 455 425 395 385 374 400 446 518 603 682 745 782 787 768 734 711 703 700 687 639 562 481 429 411 418 433 431 406 359 316 306 394 497 611 714 795 852 890 905 893 863 803 734 675 683 806 957 1113 1235 1328 1397 1454 1508 1550 1565 1536 1475 1383 1307 1305 1468 1635 1802 1936 2039 2102 2124 2105 2049 1980 1906 1845 1796 1775 1776 1775 1748 1691 1646 1621 1608 1588 1557 1496 1412 1324 1249 1211 1195 1191 1188 1171 1137 1083 1016 943 892 879 882 872 854 866 922 1013 1120 1229 1329 1414 1473 1505 1502 1468 1407 1322 1208 1065 888 701 514 357 210 54 -1 -1 -1 -1 -1 -1 -1 -1 -1 -1
-1 -1 -1 -1 -1 -1 -1 -1 23 106 122 73 -1 -1 -1 133 372 607 794 914 974 983 961 926 905 921 966 1021 1078 1134 1177 1193 1174 1114 1013 886 745 614 532 527 596 671 707 684 618 539 470 428 400 370 359 354 364 367 410 489 582 675 749 796 813 806 786 769 758 755 733 684 599 510 443 411 417 438 457 457 429 386 352 340 434 536 652 761 855 924 970 988 972 935 868 796 743 766 911 1085 1249 1376 1466 1530 1583 1631 1665 1669 1634 1567 1477 1410 1440 1588 1739 1886 1997 2078 2116 2110 2065 1993 1918 1846 1797 1772 1776 1780 1768 1737 1724 1707 1685 1653 1588 1501 1400 1301 1240 1197 1184 1188 1193 1184 1148 1089 1013 941 893 885 899 909 899 879 903 973 1078 1195 1306 1401 1472 1509 1512 1478 1413 1312 1177 995 770 515 284 106 -1 -1 -1 -1 -1 -1 -1 -1 -1 -1 -1 -1
-1 -1 -1 -1 -1 -1 -1 -1 37 169 239 230 165 90 59 110 305 539 746 892 967 980 953 914 897 922 973 1036 1096 1153 1195 1207 1176 1095 972 814 662 554 514 568 652 719 727 669 570 467 406 371 361 363 359 371 371 371 395 460 560 662 748 803 827 827 817 806 803 795 779 727 639 535 450 410 404 424 451 474 478 459 422 395 370 459 557 689 818 930 1010 1060 1079 1066 1025 959 892 853 907 1069 1255 1411 1527 1607 1666 1714 1755 1778 1767 1725 1655 1578 1525 1569 1702 1835 1960 2048 2103 2110 2072 2001 1914 1840 1788 1772 1779 1795 1796 1803 1795 1787 1758 1706 1624 1514 1399 1315 1239 1209 1192 1190 1201 1193 1154 1081 1000 929 884 870 901 930 942 939 924 963 1047 1161 1283 1385 1466 1510 1518 1486 1416 1307 1139 929 640 327 50 -1 -1 -1 -1 -1 -1 -1 -1 -1 -1 -1 -1 -1
-1 -1 -1 -1 -1 -1 -1 -1 54 219 326 367 344 290 251 267 351 518 713 866 952 970 940 903 890 921 979 1048 1116 1172 1214 1221 1180 1082 928 749 589 503 521 611 714 765 743 650 518 419 372 367 363 385 401 401 412 410 412 455 542 648 743 804 828 829 824 824 828 830 816 771 684 574 479 428 412 413 434 464 497 508 500 458 411 366 454 585 743 896 1023 1110 1163 1185 1173 1133 1081 1032 1019 1106 1268 1441 1580 1682 1748 1799 1840 1871 1882 1860 1813 1746 1677 1640 1691 1811 1925 2026 2088 2108 2076 2001 1913 1833 1796 1787 1800 1819 1844 1856 1868 1859 1827 1760 1664 1547 1429 1326 1268 1220 1205 1204 1220 1208 1154 1069 978 916 878 881 887 933 979 998 1003 1000 1055 1149 1263 1376 1459 1511 1523 1493 1420 1300 1137 884 575 238 3 -1 -1 -1 -1 -1 -1 -1 -1 -1 -1 -1 -1 -1
-1 -1 -1 -1 -1 -1 -1 -1 77 266 406 479 500 484 459 469 517 593 725 857 945 962 938 901 890 920 980 1052 1125 1190 1230 1237 1190 1079 910 720 560 494 542 656 761 809 767 643 514 431 401 395 413 420 453 469 467 475 475 490 548 649 740 801 821 817 813 822 835 847 847 816 743 643 550 491 454 436 432 452 497 541 554 532 455 377 357 471 638 826 995 1128 1221 1277 1304 1298 1272 1238 1218 1237 1337 1483 1634 1750 1830 1883 1923 1957 1977 1978 1947 1898 1832 1775 1755 1808 1911 2002 2077 2105 2085 2017 1925 1862 1831 1830 1843 1869 1890 1919 1934 1930 1891 1818 1713 1592 1467 1363 1281 1237 1215 1236 1248 1229 1160 1059 961 908 913 899 891 933 1002 1056 1078 1093 1110 1176 1267 1369 1459 1514 1529 1499 1425 1310 1136 911 610 340 167 110 100 89 43 -1 -1 -1 -1 -1 -1 -1 -1 -1
-1 -1 -1 -1 -1 -1 -1 -1 121 320 479 582 631 647 658 661 690 743 806 897 959 978 955 923 904 926 976 1046 1124 1196 1243 1252 1206 1098 939 754 590 515 571 691 803 852 808 691 580 517 485 483 476 497 515 549 561 555 564 573 610 662 747 796 813 801 799 810 827 850 865 857 813 743 662 589 537 500 479 475 508 566 606 595 532 436 381 381 526 716 922 1105 1244 1344 1404 1439 1443 1434 1418 1435 1489 1580 1701 1821 1906 1965 2007 2044 2068 2072 2060 2023 1971 1916 1873 1863 1910 1996 2066 2108 2101 2051 1983 1931 1901 1892 1913 1937 1961 1978 2000 1994 1955 1877 1769 1643 1515 1398 1305 1244 1241 1267 1283 1251 1170 1049 952 941 944 924 902 946 1025 1103 1154 1181 1206 1234 1302 1384 1465 1522 1537 1507 1432 1319 1164 944 725 516 391 305 229 140 29 -1 -1 -1 -1 -1 -1 -1 -1 -1
-1 -1 -1 -1 -1 -1 -1 -1 188 385 546 671 743 789 813 836 854 887 936 973 1017 1023 1007 978 954 940 974 1031 1111 1187 1244 1262 1227 1132 987 812 641 552 608 732 843 899 873 785 700 644 615 593 591 589 618 643 667 672 667 685 699 732 764 803 803 805 799 799 816 836 866 885 880 843 783 714 653 605 570 564 568 615 667 675 632 555 469 413 431 600 816 1037 1232 1376 1484 1549 1591 1599 1606 1616 1659 1726 1807 1900 1986 2043 2090 2129 2152 2159 2149 2125 2083 2032 1982 1949 1952 1999 2069 2114 2127 2105 2064 2020 1989 1986 1992 2018 2039 2057 2061 2057 2017 1938 1827 1696 1564 1438 1333 1270 1274 1304 1310 1268 1174 1052 960 962 975 946 917 963 1057 1149 1223 1266 1296 1325 1363 1422 1487 1537 1551 1519 1453 1342 1187 1014 832 672 529 390 239 70 -1 -1 -1 -1 -1 -1 -1 -1 -1 -1
-1 -1 -1 -1 -1 -1 -1 43 255 443 612 746 843 902 946 976 1002 1028 1052 1082 1090 1099 1085 1060 1029 1005 982 1022 1085 1167 1232 1264 1243 1166 1038 870 693 591 652 773 888 950 951 898 838 788 760 731 716 726 736 765 777 792 794 796 815 816 830 826 824 816 813 807 801 820 855 895 923 925 896 844 788 738 705 684 695 710 753 779 758 704 623 534 465 519 709 948 1178 1382 1529 1637 1701 1744 1761 1780 1816 1869 1933 2000 2065 2125 2170 2204 2227 2231 2222 2201 2163 2114 2065 2025 2008 2027 2075 2126 2153 2158 2143 2114 2089 2083 2093 2105 2124 2135 2137 2119 2078 1996 1879 1750 1611 1485 1373 1308 1310 1331 1324 1267 1166 1048 968 985 999 965 935 986 1093 1203 1290 1346 1381 1412 1442 1481 1525 1562 1571 1543 1476 1371 1233 1076 915 751 569 360 129 -1 -1 -1 -1 -1 -1 -1 -1 -1 -1 -1
-1 -1 -1 -1 -1 -1 -1 81 289 494 669 815 928 1006 1058 1092 1124 1151 1171 1179 1191 1184 1180 1159 1130 1091 1055 1021 1069 1132 1206 1253 1254 1197 1084 924 744 631 683 820 932 1010 1030 1016 971 937 902 883 858 868 887 892 911 911 918 927 928 931 912 895 870 852 839 816 801 811 838 889 944 982 989 969 924 888 854 845 833 853 875 894 900 868 809 715 625 573 659 872 1120 1349 1547 1687 1790 1852 1896 1924 1955 2001 2051 2100 2152 2203 2246 2274 2289 2291 2279 2252 2212 2162 2113 2070 2048 2049 2081 2130 2174 2199 2208 2200 2183 2180 2186 2199 2205 2214 2207 2185 2136 2050 1929 1792 1661 1527 1413 1341 1331 1328 1297 1229 1129 1031 983 1023 1035 992 963 1023 1133 1255 1352 1418 1463 1488 1519 1544 1573 1596 1598 1568 1502 1400 1271 1122 956 777 548 277 50 -1 -1 -1 -1 -1 -1 -1 -1 -1 -1 -1
-1 -1 -1 -1 -1 -1 -1 71 309 524 716 875 1002 1095 1153 1196 1223 1254 1274 1285 1287 1287 1277 1267 1242 1199 1143 1096 1050 1101 1163 1229 1256 1224 1127 980 800 674 724 851 975 1060 1111 1114 1105 1072 1055 1019 1012 1007 1027 1046 1046 1051 1043 1046 1053 1041 1020 986 951 916 883 848 826 809 824 875 949 1019 1064 1071 1059 1029 1017 998 998 996 1021 1037 1036 1031 995 932 836 766 746 863 1085 1329 1538 1717 1845 1939 1999 2046 2085 2114 2154 2194 2237 2276 2313 2336 2343 2336 2312 2278 2232 2180 2127 2082 2056 2053 2081 2129 2182 2228 2257 2270 2269 2265 2274 2279 2289 2286 2273 2243 2186 2095 1974 1838 1701 1561 1436 1360 1308 1270 1212 1137 1073 1019 1052 1082 1092 1047 1018 1071 1184 1306 1412 1484 1530 1564 1585 1605 1622 1633 1627 1591 1521 1422 1290 1143 981 773 535 299 68 -1 -1 -1 -1 -1 -1 -1 -1 -1 -1 -1
-1 -1 -1 -1 -1 -1 -1 43 302 545 755 926 1065 1167 1242 1285 1320 1340 1365 1380 1386 1383 1381 1371 1351 1311 1253 1174 1107 1060 1122 1195 1253 1248 1173 1042 875 719 756 866 1004 1112 1176 1214 1214 1208 1181 1172 1143 1149 1167 1183 1199 1192 1178 1167 1168 1160 1130 1092 1052 1009 962 917 871 842 836 872 951 1046 1119 1164 1169 1172 1158 1158 1149 1154 1167 1184 1187 1181 1175 1137 1076 1002 963 979 1128 1336 1556 1735 1886 1997 2082 2142 2185 2221 2247 2282 2316 2349 2373 2385 2382 2360 2324 2278 2227 2170 2114 2069 2040 2042 2075 2125 2183 2241 2291 2320 2336 2343 2346 2356 2357 2353 2330 2289 2225 2134 2015 1880 1739 1598 1468 1353 1259 1168 1099 1040 1035 1093 1136 1176 1166 1127 1108 1139 1246 1362 1467 1544 1596 1625 1646 1657 1667 1669 1651 1607 1535 1430 1317 1173 999 806 601 412 274 209 156 73 -1 -1 -1 -1 -1 -1 -1 -1
