-1 -1 -1 -1 -1 -1 -1 -1 -1 -1 75 227 356 452 527 589 650 712 773 832 886 929 958 969 971 963 952 940 916 870 798 698 609 536 548 566 605 642 673 687 686 676 662 647 631 617 602 584 565 548 534 555 575 603 627 648 666 680 691 698 697 694 693 700 704 700 685 657 622 583 542 503 464 436 422 422 423 426 425 422 413 395 373 356 341 320 293 260 223 181 131 70 -1 -1 -1 -1 -1 -1 -1 -1 -1 -1 -1 -1 2 95 161 192 194 177 156 137 138 153 190 229 261 288 316 356 394 434 467 498 516 515 492 457 418 395 383 383 378 358 304 217 118 83 80 70 53 50 68 110 155 191 215 228 246 282 345 412 466 501 514 508 497 476 447 422 392 363 323 272 209 134 44 -1 -1 -1 -1 -1 -1 -1 -1 -1 -1 -1 -1 -1
-1 -1 -1 -1 -1 -1 -1 -1 -1 -1 4 176 325 445 529 592 643 692 742 794 844 892 932 963 982 991 989 971 933 870 769 673 584 595 622 659 689 712 720 710 689 670 653 635 611 587 565 554 534 534 558 584 614 637 657 674 686 694 693 682 663 642 637 645 663 676 680 671 650 624 595 567 546 527 520 521 524 519 513 499 480 453 425 401 382 363 340 312 279 237 185 117 33 -1 -1 -1 -1 -1 -1 -1 -1 -1 -1 -1 -1 80 164 221 246 250 238 229 227 236 257 288 323 355 384 414 447 473 497 511 513 495 451 388 327 282 276 282 302 300 265 193 117 43 31 20 0 -1 15 59 96 116 129 135 150 217 306 388 460 508 532 539 532 514 488 459 424 382 327 258 173 73 -1 -1 -1 -1 -1 -1 -1 -1 -1 -1 -1 -1 -1 -1
-1 -1 -1 -1 -1 -1 -1 -1 -1 -1 -1 91 248 374 461 518 559 593 636 689 750 812 874 928 971 998 1006 989 945 864 775 669 659 677 716 744 758 762 743 704 663 630 614 596 577 546 535 532 548 563 591 620 643 660 671 678 682 682 674 649 610 577 561 576 603 633 654 658 646 623 597 578 568 565 567 574 578 576 564 543 512 470 429 393 368 349 331 315 290 252 197 123 30 -1 -1 -1 -1 -1 -1 -1 -1 -1 -1 -1 -1 72 163 234 282 305 312 308 309 315 329 353 385 415 443 464 487 501 509 507 496 467 412 326 228 161 136 165 203 224 215 176 111 51 1 -1 -1 -1 -1 10 37 56 62 66 122 208 302 390 459 509 541 554 554 540 516 483 439 382 308 217 96 -1 -1 -1 -1 -1 -1 -1 -1 -1 -1 -1 -1 -1 -1 -1
-1 -1 -1 -1 -1 -1 -1 -1 -1 -1 -1 -1 129 243 322 364 379 394 437 509 599 698 794 879 945 993 1013 1003 956 886 791 755 750 776 800 812 812 791 749 692 635 601 581 568 558 559 554 563 585 609 632 651 665 667 661 653 649 644 637 610 557 503 482 494 536 580 614 629 624 599 567 548 540 549 564 581 592 595 584 559 517 463 394 335 294 273 271 266 253 222 165 85 -1 -1 -1 -1 -1 -1 -1 -1 -1 -1 -1 -1 25 83 167 248 307 348 369 378 379 383 397 419 443 469 490 507 514 515 501 481 454 424 373 292 171 64 16 41 88 127 146 136 101 52 7 -1 -1 -1 -1 -1 -1 11 25 73 142 230 318 392 455 503 538 557 564 556 533 494 440 369 273 147 4 -1 -1 -1 -1 -1 -1 -1 -1 -1 -1 -1 -1 -1 -1 -1
-1 -1 -1 -1 -1 -1 -1 -1 -1 -1 -1 -1 -1 67 127 143 134 120 192 309 452 598 731 840 928 986 1015 1013 978 915 866 839 845 860 869 866 848 810 755 695 657 629 613 603 605 606 608 618 634 654 669 679 675 656 626 598 584 583 581 567 523 453 407 422 465 521 567 592 594 570 531 491 484 492 521 550 572 583 578 555 512 443 349 254 175 156 163 177 173 147 94 12 -1 -1 -1 -1 -1 -1 -1 -1 -1 -1 23 62 96 129 187 263 332 382 416 433 441 447 459 477 497 515 530 538 535 518 480 427 387 354 325 266 178 71 -1 -1 -1 16 57 73 66 43 10 -1 -1 -1 -1 -1 -1 1 54 110 179 248 313 375 429 479 519 549 564 561 540 497 439 352 236 83 -1 -1 -1 -1 -1 -1 -1 -1 -1 -1 -1 -1 -1 -1 -1 -1
-1 -1 -1 -1 -1 -1 -1 -1 -1 -1 -1 -1 -1 -1 -1 -1 -1 -1 48 213 393 560 703 828 920 984 1017 1024 1001 965 933 920 918 923 923 909 878 830 780 741 712 692 677 669 669 671 671 673 682 692 699 697 677 638 578 521 497 494 514 519 495 443 380 357 402 464 514 549 560 544 503 456 414 423 453 495 529 552 557 541 497 424 324 200 90 28 40 58 65 36 -1 -1 -1 -1 -1 -1 -1 -1 -1 -1 -1 -1 42 103 152 193 231 287 354 410 452 479 493 500 511 524 539 550 557 557 544 514 456 374 298 270 252 239 189 108 12 -1 -1 -1 -1 -1 10 13 2 -1 -1 -1 -1 -1 -1 39 88 143 192 231 271 316 372 432 486 530 554 558 539 500 434 343 216 68 -1 -1 -1 -1 -1 -1 -1 -1 -1 -1 -1 -1 -1 -1 -1 -1
-1 -1 -1 -1 -1 -1 -1 -1 -1 -1 -1 -1 -1 -1 -1 -1 -1 -1 115 271 437 588 721 830 921 984 1022 1035 1026 1005 987 978 974 969 960 938 903 860 824 796 773 755 741 733 728 726 724 721 718 718 715 704 675 623 548 462 401 405 430 461 464 436 387 330 355 399 455 497 520 516 486 433 381 357 386 431 475 509 527 520 483 416 318 209 89 -1 -1 -1 -1 -1 -1 -1 -1 -1 -1 -1 -1 -1 -1 -1 -1 -1 45 119 186 240 285 327 378 434 479 514 534 545 551 561 566 570 569 562 543 506 447 360 254 179 181 177 173 131 60 -1 -1 -1 -1 -1 -1 -1 -1 -1 -1 -1 -1 7 33 68 107 138 157 162 173 222 298 377 451 507 542 551 538 498 438 350 244 134 22 -1 -1 -1 -1 -1 -1 -1 -1 -1 -1 -1 -1 -1 -1 -1
-1 -1 -1 -1 -1 -1 -1 -1 -1 -1 -1 -1 -1 -1 -1 -1 64 171 289 418 545 662 767 859 933 988 1024 1041 1042 1033 1023 1016 1010 1001 984 958 923 890 859 835 815 798 785 774 767 760 753 743 732 721 709 692 665 618 548 459 371 328 356 388 418 421 394 356 306 340 384 436 471 484 469 430 377 330 339 372 419 462 491 499 477 421 345 250 143 42 -1 -1 -1 -1 -1 -1 -1 2 -1 -1 -1 -1 -1 -1 -1 -1 41 127 203 269 325 369 410 457 501 537 561 575 581 580 576 568 558 545 527 497 449 373 282 194 104 116 118 122 92 43 -1 -1 -1 -1 -1 -1 -1 -1 -1 -1 -1 23 48 70 86 88 67 48 55 136 242 343 425 487 527 543 533 501 447 377 296 213 134 68 19 -1 -1 -1 -1 -1 -1 -1 -1 -1 -1 -1 -1 -1
-1 -1 -1 -1 -1 -1 -1 -1 -1 -1 42 69 71 85 126 193 275 371 470 567 666 752 828 897 953 995 1023 1038 1043 1043 1040 1037 1030 1017 995 964 928 892 861 837 818 803 791 780 770 762 752 736 718 697 677 661 642 611 561 489 412 348 294 325 357 387 391 366 331 282 323 365 414 444 451 429 385 341 307 324 364 414 457 479 474 441 384 308 222 143 72 19 -1 -1 18 43 43 23 -1 -1 -1 -1 -1 -1 -1 -1 47 134 218 291 352 403 444 484 522 554 578 592 593 584 563 539 519 505 492 474 445 395 325 233 142 48 63 73 89 75 34 -1 -1 -1 -1 -1 -1 -1 -1 -1 -1 17 33 38 27 -1 -1 -1 -1 102 222 329 413 476 516 533 527 498 457 402 339 272 206 144 88 29 -1 -1 -1 -1 -1 -1 -1 -1 -1 -1 -1 -1
-1 -1 -1 -1 -1 -1 -1 -1 -1 -1 95 168 220 273 327 387 463 540 617 696 765 831 885 929 968 994 1011 1022 1030 1034 1038 1040 1036 1022 995 955 907 859 819 788 769 756 746 735 727 726 721 704 681 650 623 607 599 589 565 523 467 395 329 274 305 334 362 364 339 303 261 305 351 402 425 419 392 349 310 290 322 371 421 455 469 457 422 366 304 242 192 148 117 105 100 85 55 14 -1 -1 -1 -1 -1 -1 -1 -1 72 154 238 311 375 427 471 508 542 568 586 595 591 568 529 480 449 431 425 427 419 396 350 281 186 96 3 21 46 71 63 30 -1 -1 -1 -1 -1 -1 -1 -1 -1 -1 -1 -1 -1 -1 -1 -1 6 126 237 336 414 469 505 519 513 491 457 410 356 296 232 168 103 31 -1 -1 -1 -1 -1 -1 -1 -1 -1 -1 -1 -1
-1 -1 -1 -1 -1 -1 -1 -1 -1 -1 115 232 325 402 475 541 599 665 730 784 838 881 920 949 967 977 982 989 995 1003 1015 1025 1030 1018 988 937 872 801 739 695 670 660 649 642 643 654 666 658 638 599 558 539 537 545 548 535 501 449 377 317 259 285 310 336 337 310 273 245 305 360 392 400 384 353 311 279 289 330 379 424 454 463 447 412 368 326 285 250 215 179 139 89 32 -1 -1 -1 -1 -1 -1 -1 -1 40 117 191 263 337 397 449 491 525 552 572 585 588 577 546 485 407 344 315 323 347 365 368 347 302 231 136 47 -1 -1 27 54 52 18 -1 -1 -1 -1 -1 -1 -1 -1 -1 -1 -1 -1 -1 -1 -1 62 172 270 353 415 463 489 498 493 473 443 399 346 285 219 147 76 -1 -1 -1 -1 -1 -1 -1 -1 -1 -1 -1 -1 -1
-1 -1 -1 -1 -1 -1 -1 -1 -1 -1 134 272 387 485 569 637 695 745 794 837 872 903 927 942 944 937 933 931 935 951 977 1004 1018 1011 979 924 848 760 666 593 562 539 528 521 535 565 592 608 597 564 512 470 472 483 504 516 509 479 429 360 297 240 263 288 309 304 272 229 266 317 357 371 368 347 311 278 263 291 340 393 437 458 458 439 412 381 349 313 269 212 142 62 -1 -1 -1 -1 -1 -1 -1 -1 16 89 165 239 303 364 422 465 502 529 548 561 570 572 562 526 460 355 250 185 199 236 281 309 314 292 244 172 80 1 -1 -1 5 37 33 -1 -1 -1 -1 -1 -1 -1 -1 -1 -1 -1 -1 -1 -1 26 126 219 303 367 415 446 464 470 464 448 416 370 314 246 171 97 23 -1 -1 -1 -1 -1 -1 -1 -1 -1 -1 -1 -1 -1
-1 -1 -1 -1 -1 -1 -1 -1 -1 -1 161 302 431 537 622 692 745 786 819 845 871 891 904 905 894 875 857 848 853 889 937 980 1004 1004 976 924 851 761 658 560 498 468 446 434 451 478 516 544 558 543 502 450 403 418 439 468 484 481 454 404 335 272 221 243 262 273 254 239 228 292 325 342 344 330 305 271 251 267 313 370 417 445 453 444 427 406 381 346 295 222 128 27 -1 -1 -1 -1 -1 -1 -1 12 75 145 218 287 345 397 440 475 499 517 528 535 541 549 545 519 456 365 247 136 86 128 170 220 249 251 224 172 101 15 -1 -1 -1 -1 28 12 -1 -1 -1 -1 -1 -1 -1 -1 -1 -1 -1 -1 -1 83 177 257 318 368 398 416 427 431 431 416 384 333 266 191 105 23 -1 -1 -1 -1 -1 -1 -1 -1 -1 -1 -1 -1 -1 -1
-1 -1 -1 -1 -1 -1 -1 -1 -1 35 188 338 462 566 648 711 756 784 801 819 833 849 852 843 819 786 758 743 778 838 908 960 991 997 976 932 869 788 698 612 553 509 482 451 411 418 440 479 514 525 506 460 404 353 373 397 431 451 451 425 375 308 249 200 217 221 224 206 253 281 310 316 316 310 291 263 245 260 303 352 397 425 434 428 416 402 384 356 306 230 123 12 -1 -1 -1 -1 3 26 50 90 143 209 275 334 384 423 450 467 479 486 489 493 503 516 526 514 475 403 302 190 97 26 60 108 158 181 172 135 77 6 -1 -1 -1 -1 16 17 -1 -1 -1 -1 -1 -1 -1 -1 -1 -1 -1 -1 30 125 209 271 316 345 359 370 376 389 393 382 350 297 227 134 30 -1 -1 -1 -1 -1 -1 -1 -1 -1 -1 -1 -1 -1 -1 -1
-1 -1 -1 -1 -1 -1 -1 -1 -1 60 219 360 483 579 652 702 733 744 752 758 773 783 782 759 722 677 642 658 723 814 891 949 982 988 972 938 886 824 755 692 638 597 557 510 458 398 386 419 464 501 508 482 428 367 310 332 356 395 420 419 392 344 279 221 172 176 170 220 263 298 307 301 294 286 272 254 244 265 301 347 380 399 401 391 378 372 364 349 312 244 147 52 0 -1 17 48 81 112 140 174 219 275 331 379 414 437 445 444 444 439 437 441 458 481 503 508 488 440 362 262 145 43 -1 4 50 87 89 66 19 -1 -1 -1 -1 -1 3 14 -1 -1 -1 -1 -1 -1 -1 -1 -1 -1 -1 -1 64 151 216 263 289 297 299 302 320 337 348 342 316 268 195 91 -1 -1 -1 -1 -1 -1 -1 -1 -1 -1 -1 -1 -1 -1 -1 -1
-1 -1 -1 -1 -1 -1 -1 -1 -1 82 239 375 485 575 634 667 679 679 673 685 698 706 693 660 608 560 550 607 708 806 890 944 970 972 957 929 892 844 794 743 698 658 617 573 512 447 392 378 423 472 498 494 458 398 336 274 292 325 367 389 385 357 307 242 181 139 163 216 274 307 315 304 282 269 256 245 251 272 308 341 365 370 358 336 321 320 324 327 312 267 198 126 93 80 99 130 163 195 224 256 294 338 380 413 434 438 428 410 394 383 379 392 415 449 481 495 489 458 401 316 207 80 -1 -1 -1 -1 -1 -1 -1 -1 -1 -1 -1 -1 -1 -1 -1 -1 -1 -1 -1 -1 -1 -1 -1 -1 -1 -1 86 154 206 230 232 223 214 229 253 279 297 297 274 230 165 67 -1 -1 -1 -1 -1 -1 -1 -1 -1 -1 -1 -1 -1 -1 -1 -1
-1 -1 -1 -1 -1 -1 -1 -1 -1 81 242 376 480 552 594 607 601 589 590 602 617 615 596 548 495 467 511 610 717 819 894 938 950 944 926 905 877 842 800 756 712 675 642 604 555 493 424 375 394 434 472 489 476 436 372 308 249 270 305 338 352 345 313 261 197 145 160 208 265 304 317 310 290 264 251 252 262 283 309 333 342 335 307 271 251 249 269 295 306 293 256 217 188 185 183 207 241 273 302 330 360 391 419 436 439 429 405 371 344 326 331 349 386 427 458 475 477 461 422 357 258 135 1 -1 -1 -1 -1 -1 -1 -1 -1 -1 -1 -1 -1 -1 -1 -1 -1 -1 -1 -1 -1 -1 -1 -1 -1 7 83 144 172 170 150 125 122 141 183 221 243 242 220 183 128 48 -1 -1 -1 -1 -1 -1 -1 -1 -1 -1 -1 -1 -1 -1 -1 -1
-1 -1 -1 -1 -1 -1 -1 -1 -1 70 229 360 457 513 535 528 510 498 505 521 528 525 493 446 407 428 521 632 742 834 897 929 926 901 877 857 840 813 777 733 688 652 625 600 567 517 456 404 372 397 433 463 471 455 413 349 285 230 251 275 300 310 298 266 215 167 147 188 241 281 305 309 297 279 268 266 274 286 302 312 312 291 251 201 173 177 214 261 297 312 307 293 281 273 275 280 310 341 370 392 413 431 446 448 436 412 381 342 303 289 299 334 373 407 432 449 453 452 431 382 303 193 65 -1 -1 -1 -1 -1 -1 -1 -1 -1 -1 -1 -1 -1 -1 -1 -1 -1 -1 -1 -1 -1 -1 -1 -1 0 74 120 125 97 51 26 26 70 126 171 185 172 148 113 76 18 -1 -1 -1 -1 -1 -1 -1 -1 -1 -1 -1 -1 -1 -1 -1 -1
-1 -1 -1 -1 -1 -1 -1 -1 -1 73 215 338 421 463 462 443 419 413 426 444 450 433 403 373 379 441 539 658 764 847 901 917 897 850 809 789 781 765 733 686 638 599 575 562 545 516 474 427 387 360 387 418 445 455 438 394 326 260 207 218 238 257 266 254 224 179 146 163 202 244 274 292 293 286 278 274 274 275 277 278 268 242 193 134 103 123 175 233 284 318 337 344 345 345 349 356 370 399 422 440 450 459 459 450 428 397 361 323 288 271 290 323 357 382 401 412 428 435 428 399 340 255 155 55 -1 -1 -1 -1 -1 -1 -1 -1 -1 -1 -1 -1 -1 -1 -1 -1 -1 -1 -1 -1 -1 -1 -1 -1 57 94 89 32 -1 -1 -1 18 90 126 119 90 50 23 -1 -1 -1 -1 -1 -1 -1 -1 -1 -1 -1 -1 -1 -1 -1 -1 -1 -1
-1 -1 -1 -1 -1 -1 -1 -1 -1 81 214 317 387 408 395 366 343 347 368 383 377 361 342 346 397 472 570 678 778 854 901 908 873 806 737 710 704 701 674 626 574 534 512 504 498 488 467 434 390 357 339 368 406 438 446 423 371 298 232 186 189 203 217 225 213 188 161 139 164 196 230 256 269 272 267 261 255 246 238 229 214 188 139 81 59 92 150 209 263 304 334 356 373 388 401 414 429 446 463 470 470 464 457 441 417 384 345 309 281 264 279 306 335 354 363 379 399 415 418 404 371 318 253 180 111 59 16 -1 -1 -1 -1 -1 -1 -1 -1 -1 -1 -1 -1 -1 -1 -1 -1 -1 -1 -1 -1 -1 41 76 62 6 -1 -1 -1 2 66 92 59 -1 -1 -1 -1 -1 -1 -1 -1 -1 -1 -1 -1 -1 -1 -1 -1 -1 -1 -1 -1 -1
-1 -1 -1 -1 -1 -1 -1 -1 -1 102 216 311 362 370 344 307 296 310 325 328 325 318 316 346 410 502 597 692 781 855 898 902 863 786 692 633 624 622 605 563 511 476 455 446 445 442 433 411 377 341 323 329 375 419 443 439 404 347 279 223 177 164 176 182 187 182 162 143 128 150 178 207 227 237 235 226 214 198 185 169 154 130 91 47 37 71 126 179 224 263 295 328 362 397 429 452 471 485 491 486 464 449 433 419 398 367 331 293 270 265 266 292 311 327 334 353 376 394 402 404 393 371 332 281 226 171 125 85 53 18 -1 -1 -1 -1 -1 -1 -1 -1 -1 -1 -1 -1 -1 -1 -1 -1 -1 -1 33 62 48 -1 -1 -1 -1 -1 58 72 23 -1 -1 -1 -1 -1 -1 -1 -1 -1 -1 -1 -1 -1 -1 -1 -1 -1 -1 -1 -1 -1
-1 -1 -1 -1 -1 -1 -1 -1 -1 118 228 311 355 352 320 290 275 282 292 298 305 311 320 347 414 504 605 699 785 851 895 901 865 791 698 599 555 545 531 504 466 438 426 420 409 402 388 372 349 326 309 326 362 405 435 443 426 388 335 276 226 191 156 147 158 161 157 139 121 112 133 160 182 193 189 176 158 143 124 110 95 77 51 23 30 59 100 137 168 193 225 265 317 374 426 467 496 510 509 490 457 410 394 381 369 345 313 284 264 263 276 280 300 309 331 345 356 369 382 395 404 402 386 352 306 254 200 151 104 56 6 -1 -1 -1 -1 -1 -1 -1 -1 -1 -1 -1 -1 -1 -1 -1 -1 -1 26 49 28 -1 -1 -1 -1 -1 54 68 13 -1 -1 -1 -1 -1 -1 -1 -1 -1 -1 -1 -1 -1 -1 -1 -1 -1 -1 -1 -1 -1
-1 -1 -1 -1 -1 -1 -1 -1 -1 113 235 317 361 356 330 300 274 269 276 300 323 337 352 373 418 504 599 699 784 852 892 902 872 810 720 629 542 503 483 476 451 440 439 434 421 390 368 350 334 321 323 336 365 399 426 439 434 413 379 337 291 240 194 158 134 139 138 131 115 102 104 127 147 158 148 125 107 87 70 58 50 38 21 18 20 45 68 86 102 121 142 190 257 333 404 464 504 522 518 492 441 388 342 339 330 317 297 278 281 287 293 300 300 322 332 335 335 337 359 384 406 419 417 395 354 300 239 172 105 40 -1 -1 -1 -1 -1 -1 -1 -1 -1 -1 -1 -1 -1 -1 -1 -1 -1 -1 17 29 5 -1 -1 -1 -1 0 62 77 29 -1 -1 -1 -1 -1 -1 -1 -1 -1 -1 -1 -1 -1 -1 -1 -1 -1 -1 -1 -1 -1
-1 -1 -1 -1 -1 -1 -1 -1 -1 85 221 321 371 383 362 328 299 278 281 308 347 384 407 427 460 520 610 698 787 852 893 902 877 823 752 667 589 528 503 478 479 482 482 479 461 434 404 382 367 358 357 364 378 397 414 425 429 422 408 381 341 293 238 185 146 116 118 117 112 105 107 116 134 143 132 102 77 59 45 35 29 26 28 26 32 35 46 54 63 73 98 147 219 303 388 455 506 529 523 492 441 376 326 302 304 291 287 297 303 311 316 319 326 333 333 315 291 312 344 376 404 427 433 416 377 317 241 150 51 -1 -1 -1 -1 -1 -1 -1 -1 -1 -1 -1 -1 -1 -1 -1 -1 -1 -1 -1 1 -1 -1 -1 -1 -1 -1 17 74 92 56 -1 -1 -1 -1 -1 -1 -1 -1 -1 -1 -1 -1 -1 -1 -1 -1 -1 -1 -1 -1 -1
-1 -1 -1 -1 -1 -1 -1 -1 -1 25 180 303 384 415 410 383 350 320 300 312 362 417 466 497 526 574 641 724 795 860 894 899 873 823 758 690 623 574 538 523 517 524 530 526 516 495 470 445 426 415 407 401 397 395 398 403 410 414 414 401 372 326 268 209 150 118 103 112 122 127 134 141 150 156 147 124 100 83 67 54 50 50 53 57 58 61 68 77 83 90 98 137 209 297 381 455 508 533 531 503 453 395 344 315 299 304 308 315 320 323 326 329 334 335 325 289 256 286 333 376 409 433 443 427 385 314 218 97 -1 -1 -1 -1 -1 -1 -1 -1 -1 -1 -1 -1 -1 -1 -1 -1 -1 -1 -1 -1 -1 -1 -1 -1 -1 -1 -1 37 91 108 81 14 -1 -1 -1 -1 -1 -1 -1 -1 -1 -1 -1 -1 -1 -1 -1 -1 -1 -1 -1 -1
-1 -1 -1 -1 -1 -1 -1 -1 -1 -1 109 262 377 444 462 451 422 388 355 336 360 431 499 558 600 642 698 764 827 872 901 895 859 798 728 662 610 571 546 531 526 531 542 551 554 543 526 505 485 469 454 436 416 396 379 376 381 395 405 403 383 341 284 215 160 119 121 133 149 167 177 185 188 189 183 167 149 127 109 95 86 87 91 96 100 107 116 129 141 142 151 166 221 305 391 461 513 542 543 519 476 429 385 353 338 332 330 324 316 312 311 315 320 318 296 266 235 275 334 380 418 444 452 434 384 304 181 53 -1 -1 -1 -1 -1 -1 -1 -1 -1 -1 -1 -1 -1 -1 -1 -1 -1 -1 -1 -1 -1 -1 -1 -1 -1 -1 -1 59 102 119 101 52 -1 -1 -1 -1 -1 -1 -1 -1 -1 -1 -1 -1 -1 -1 -1 -1 -1 -1 -1 -1
-1 -1 -1 -1 -1 -1 -1 -1 -1 -1 12 191 340 447 503 514 500 468 431 399 386 428 514 590 654 708 758 810 859 895 908 892 842 767 674 593 537 502 484 473 466 474 500 530 551 556 550 539 524 506 487 461 432 400 370 347 350 364 384 395 383 347 287 220 158 148 159 178 199 217 232 237 236 230 222 209 190 167 146 127 118 118 124 133 143 156 173 189 206 217 218 236 269 333 406 473 523 551 556 537 502 460 422 391 370 352 334 310 285 272 271 278 282 272 254 218 251 288 337 389 428 455 461 439 386 290 173 26 -1 -1 -1 -1 -1 -1 -1 -1 -1 -1 -1 -1 -1 -1 -1 -1 -1 -1 -1 -1 -1 -1 -1 -1 -1 -1 21 74 107 119 108 73 16 -1 -1 -1 -1 -1 -1 -1 -1 -1 -1 -1 -1 -1 -1 -1 -1 -1 -1 -1
-1 -1 -1 -1 -1 -1 -1 -1 -1 -1 -1 87 272 416 513 560 569 553 520 485 459 461 518 606 687 753 808 854 891 916 917 891 835 748 651 544 455 397 382 361 347 365 409 463 502 524 532 533 528 517 499 474 442 408 374 342 314 329 353 378 380 348 293 221 194 197 218 238 259 278 288 288 278 265 248 232 210 186 162 141 131 132 141 156 176 197 220 244 266 281 293 305 335 380 434 488 534 563 567 552 519 478 439 407 378 350 316 277 237 214 216 223 223 214 184 211 241 295 348 395 437 464 470 444 383 293 172 85 31 3 -1 -1 -1 -1 -1 -1 -1 -1 -1 -1 -1 -1 -1 -1 -1 -1 -1 -1 -1 -1 -1 -1 -1 -1 33 76 99 104 97 74 35 -1 -1 -1 -1 -1 -1 -1 -1 -1 -1 -1 -1 -1 -1 -1 -1 -1 -1 -1
-1 -1 -1 -1 -1 -1 -1 -1 -1 -1 -1 -1 173 355 491 579 622 627 611 580 551 540 557 624 703 781 842 888 919 933 926 895 837 759 663 570 471 378 322 289 266 261 316 364 417 453 479 491 497 494 485 468 444 414 382 341 302 277 315 361 376 356 305 275 256 269 290 311 326 334 336 323 301 275 251 228 206 181 156 135 125 128 141 163 191 222 251 279 304 325 339 359 384 424 469 511 549 571 575 557 522 479 434 394 358 323 285 243 201 178 167 171 167 144 158 176 230 293 355 405 446 473 479 451 395 308 224 160 120 77 11 -1 -1 -1 -1 -1 -1 -1 -1 -1 -1 -1 -1 -1 -1 -1 -1 -1 -1 -1 -1 -1 -1 -1 30 61 74 73 65 53 30 -1 -1 -1 -1 -1 -1 -1 -1 -1 -1 -1 -1 -1 -1 -1 -1 -1 -1 -1
-1 -1 -1 -1 -1 -1 -1 -1 -1 -1 -1 -1 69 274 445 569 646 684 687 672 649 632 639 663 731 801 864 910 936 944 932 900 848 780 709 633 548 470 408 364 326 294 243 276 316 362 391 418 434 443 445 441 428 408 380 340 281 242 284 347 379 376 357 337 340 346 367 382 387 385 366 336 294 255 221 201 179 158 139 120 114 118 134 158 190 225 259 287 311 330 347 370 402 443 491 533 565 581 578 550 506 455 403 357 318 286 258 231 218 199 177 144 122 119 119 156 218 290 358 416 459 486 491 471 418 348 284 236 187 114 24 -1 -1 -1 -1 -1 -1 -1 -1 -1 -1 -1 -1 -1 -1 -1 -1 -1 -1 -1 -1 -1 -1 -1 11 34 39 28 17 8 -1 -1 -1 -1 -1 -1 -1 -1 -1 -1 -1 -1 -1 -1 -1 -1 -1 -1 -1 -1
-1 -1 -1 -1 -1 -1 -1 -1 -1 -1 -1 -1 -1 195 382 536 646 713 744 747 741 731 722 739 772 830 883 923 943 943 928 897 853 802 746 689 629 574 524 479 434 368 298 220 233 254 289 324 346 365 379 388 391 382 361 320 256 214 271 341 386 405 409 410 411 424 435 442 437 414 376 321 263 209 185 162 159 142 131 125 119 115 126 146 177 213 245 271 288 297 314 339 385 441 496 546 577 589 575 537 477 412 353 311 281 263 257 263 260 247 212 167 121 97 107 149 208 284 361 424 472 502 512 496 453 400 347 293 225 134 17 -1 -1 -1 -1 -1 -1 -1 -1 -1 -1 -1 -1 -1 -1 -1 -1 -1 -1 -1 -1 -1 -1 -1 -1 2 -1 -1 -1 -1 -1 -1 -1 -1 -1 -1 -1 -1 -1 -1 -1 -1 -1 -1 -1 -1 -1 -1 -1 -1
-1 -1 -1 -1 -1 -1 -1 -1 -1 -1 -1 -1 7 149 332 495 629 720 776 805 812 811 807 809 831 863 903 932 942 934 910 881 843 800 755 710 668 629 595 558 512 448 363 281 196 174 197 219 246 271 289 315 333 337 322 274 227 193 266 343 396 431 452 467 476 484 491 487 466 426 365 296 224 180 164 167 158 162 155 148 135 128 125 139 164 195 222 239 245 250 255 292 351 424 491 545 583 593 576 525 459 377 312 280 274 284 299 306 308 286 247 192 137 101 104 143 209 282 359 430 483 520 534 524 495 450 400 335 251 143 73 47 39 37 25 9 -1 -1 -1 -1 -1 -1 -1 -1 -1 -1 -1 -1 -1 -1 -1 -1 -1 -1 -1 -1 -1 -1 -1 -1 -1 -1 -1 -1 -1 -1 -1 -1 -1 -1 -1 -1 -1 -1 -1 -1 -1 -1 -1 -1
-1 -1 -1 -1 -1 -1 -1 -1 -1 -1 18 73 118 190 311 471 607 718 791 840 864 872 875 878 884 903 924 936 932 910 878 845 811 775 734 693 656 631 608 583 549 500 436 355 272 205 158 147 164 166 195 229 263 272 255 220 164 210 265 343 404 447 481 507 525 533 532 517 482 423 352 276 224 197 198 201 202 197 188 173 157 145 139 142 158 179 197 204 206 203 219 255 322 402 480 542 582 597 578 534 458 376 316 301 316 337 349 353 338 308 260 205 153 116 117 151 212 291 365 435 495 535 555 554 532 495 442 371 276 197 158 143 137 125 105 74 43 13 -1 -1 -1 -1 -1 -1 -1 -1 -1 -1 -1 -1 -1 -1 -1 -1 -1 -1 -1 -1 -1 -1 -1 -1 -1 -1 -1 -1 -1 -1 -1 -1 -1 -1 -1 -1 -1 -1 -1 -1 -1 -1
-1 -1 -1 -1 -1 -1 -1 -1 -1 -1 88 171 236 294 364 471 604 713 801 857 897 918 927 930 934 938 944 939 913 871 825 788 762 734 692 644 611 588 576 566 549 524 484 428 360 290 230 183 132 118 119 158 183 194 176 133 165 193 271 341 405 457 499 532 556 567 563 540 492 428 355 300 268 254 252 250 244 231 212 191 173 160 151 151 157 169 178 182 179 183 199 241 308 390 471 538 583 601 590 549 487 416 372 367 378 390 393 379 351 305 254 204 162 149 151 179 234 305 381 451 509 552 575 579 562 528 474 401 329 268 242 228 214 191 160 123 85 51 15 -1 -1 -1 -1 -1 -1 -1 -1 -1 -1 -1 -1 -1 -1 -1 -1 -1 -1 -1 -1 -1 -1 -1 -1 -1 -1 -1 -1 -1 -1 -1 -1 -1 -1 -1 -1 -1 -1 -1 -1 -1
-1 -1 -1 -1 -1 -1 -1 -1 -1 -1 111 227 320 389 452 525 620 723 806 872 918 948 964 970 970 970 962 940 897 826 756 714 701 688 650 596 548 526 516 515 520 515 499 468 421 368 310 251 199 159 134 103 117 110 88 116 142 204 265 340 402 458 507 545 572 587 584 558 511 450 388 350 324 309 296 283 265 242 217 194 173 158 147 144 146 156 167 173 177 184 206 248 314 392 469 538 586 609 604 573 523 470 438 425 427 425 411 380 335 282 230 190 177 182 203 225 272 332 404 467 526 569 595 600 586 553 502 443 385 338 308 284 255 222 189 153 116 77 35 -1 -1 -1 -1 -1 -1 -1 -1 -1 -1 -1 -1 -1 -1 -1 -1 -1 -1 -1 -1 -1 -1 -1 -1 -1 -1 -1 -1 -1 -1 -1 -1 -1 -1 -1 -1 -1 -1 -1 -1 -1
-1 -1 -1 -1 -1 -1 -1 -1 -1 -1 106 244 360 455 528 594 665 744 820 884 933 969 988 995 996 988 972 941 886 806 697 637 637 640 615 571 512 468 452 457 471 483 485 473 447 406 357 306 258 212 164 117 62 46 71 101 162 221 281 335 398 453 504 547 580 597 599 577 537 483 430 390 360 334 309 281 252 222 195 171 150 131 113 104 111 131 158 175 188 203 227 273 334 406 480 543 594 619 618 595 555 511 476 455 439 424 398 357 300 246 200 181 185 210 241 278 313 370 426 486 540 584 611 619 606 576 533 482 433 388 347 302 257 217 186 159 128 93 50 3 -1 -1 -1 -1 -1 -1 -1 -1 -1 -1 -1 -1 -1 -1 -1 -1 -1 -1 -1 -1 -1 -1 -1 -1 -1 -1 -1 -1 -1 -1 -1 -1 -1 -1 -1 -1 -1 -1 -1 -1
-1 -1 -1 -1 -1 -1 -1 -1 -1 -1 99 244 378 489 578 648 713 777 842 896 947 982 1002 1009 1005 993 972 937 884 799 700 596 585 586 584 553 508 458 410 404 416 438 454 456 441 410 365 316 268 221 172 117 63 34 66 128 188 248 299 343 388 437 485 533 574 601 607 592 556 508 454 402 357 317 280 241 200 167 142 124 107 80 53 36 54 94 140 174 199 224 258 301 363 428 496 557 604 630 632 610 572 524 478 437 408 383 355 311 263 215 191 180 192 218 261 305 352 395 453 503 554 595 624 633 623 597 559 512 465 415 359 295 220 167 140 129 115 92 60 21 -1 -1 -1 -1 -1 -1 -1 -1 -1 -1 -1 -1 -1 -1 -1 -1 -1 -1 -1 -1 -1 -1 -1 -1 -1 -1 -1 -1 -1 -1 -1 -1 -1 -1 -1 -1 -1 -1 -1 -1
-1 -1 -1 -1 -1 -1 -1 -1 -1 -1 92 253 389 508 605 685 750 811 864 916 956 987 1004 1006 997 980 957 924 877 808 719 629 536 537 533 529 499 452 403 362 369 396 419 429 420 386 337 283 230 180 135 91 61 49 94 157 218 269 310 340 366 404 453 508 558 595 609 600 566 514 449 377 312 258 217 165 121 83 70 65 52 26 -1 -1 4 59 109 158 195 231 273 326 385 450 516 572 616 641 642 619 573 518 447 386 343 315 293 270 236 228 217 208 198 216 255 309 364 417 467 520 568 607 635 645 637 614 577 534 485 428 361 272 171 77 52 55 68 67 54 28 -1 -1 -1 -1 -1 -1 -1 -1 -1 -1 -1 -1 -1 -1 -1 -1 -1 -1 -1 -1 -1 -1 -1 -1 -1 -1 -1 -1 -1 -1 -1 -1 -1 -1 -1 -1 -1 -1 -1 -1
-1 -1 -1 -1 -1 -1 -1 -1 -1 -1 106 261 403 521 620 703 774 830 882 928 964 986 995 987 969 947 921 893 855 802 732 645 563 481 486 483 471 435 383 340 338 363 388 404 394 356 290 220 160 120 77 62 64 97 134 187 241 280 302 311 326 354 411 479 537 584 606 601 566 505 421 326 236 174 130 95 47 25 10 14 3 -1 -1 8 22 24 76 114 162 209 266 327 397 464 531 587 628 651 651 623 574 498 420 338 286 263 255 251 263 267 268 252 230 220 245 301 360 421 475 529 577 618 644 654 648 624 592 548 501 438 362 266 142 15 -1 -1 -1 13 21 14 -1 -1 -1 -1 -1 -1 -1 -1 -1 -1 -1 -1 -1 -1 -1 -1 -1 -1 -1 -1 -1 -1 -1 -1 -1 -1 -1 -1 -1 -1 -1 -1 -1 -1 -1 -1 -1 -1 -1 -1
-1 -1 -1 -1 -1 -1 -1 -1 -1 -1 117 270 407 526 624 707 776 838 889 930 962 979 975 955 923 891 864 840 811 768 713 644 562 492 427 432 421 397 359 325 328 339 368 386 379 333 266 175 107 68 69 84 113 146 186 226 262 282 278 267 265 311 381 452 521 573 601 598 563 491 389 274 171 103 75 60 66 50 29 -1 -1 -1 25 51 57 54 32 66 102 160 229 309 388 468 534 595 638 660 658 630 572 500 407 338 296 287 286 297 311 323 322 307 280 258 264 302 363 422 481 533 584 623 650 660 653 633 600 561 512 452 375 275 156 31 -1 -1 -1 -1 -1 -1 -1 -1 -1 -1 -1 -1 -1 -1 -1 -1 -1 -1 -1 -1 -1 -1 -1 -1 -1 -1 -1 -1 -1 -1 -1 -1 -1 -1 -1 -1 -1 -1 -1 -1 -1 -1 -1 -1 -1 -1
-1 -1 -1 -1 -1 -1 -1 -1 -1 -1 108 261 396 509 604 685 758 819 873 918 951 963 949 909 860 815 783 764 742 710 664 607 543 473 426 384 381 369 348 341 320 336 359 383 377 338 265 194 128 75 82 121 166 203 236 265 283 281 251 214 231 284 356 434 503 561 592 594 558 485 379 255 163 123 118 121 121 109 69 18 -1 0 41 82 97 83 56 26 49 96 176 272 367 453 534 598 645 668 666 637 584 511 441 389 364 353 351 357 366 372 371 359 338 318 312 335 379 436 488 542 586 626 651 660 653 633 602 566 521 464 395 305 199 69 -1 -1 -1 -1 -1 -1 -1 -1 -1 -1 -1 -1 -1 -1 -1 -1 -1 -1 -1 -1 -1 -1 -1 -1 -1 -1 -1 -1 -1 -1 -1 -1 -1 -1 -1 -1 -1 -1 -1 -1 -1 -1 -1 -1 -1 -1
-1 -1 -1 -1 -1 -1 -1 -1 -1 -1 72 218 349 455 545 627 700 769 832 887 928 942 920 863 788 724 687 671 658 630 593 543 492 446 406 413 410 400 383 355 348 344 377 398 395 360 305 253 194 134 106 151 208 251 280 298 300 278 228 185 201 263 333 410 484 546 584 590 561 494 397 295 228 203 197 193 180 150 103 38 1 -1 48 93 120 121 95 62 29 57 131 228 333 434 521 594 645 674 674 648 600 545 494 459 435 419 412 406 403 401 398 392 383 374 371 381 414 456 503 547 590 625 647 653 644 620 591 556 517 471 411 338 241 143 44 -1 -1 -1 -1 -1 -1 -1 -1 -1 -1 -1 -1 -1 -1 -1 -1 -1 -1 -1 -1 -1 -1 -1 -1 -1 -1 -1 -1 -1 -1 -1 -1 -1 -1 -1 -1 -1 -1 -1 -1 -1 -1 -1 -1 -1
-1 -1 -1 -1 -1 -1 -1 -1 -1 -1 -1 128 243 339 424 511 597 681 765 841 896 916 893 824 738 644 589 576 563 540 504 483 442 431 452 454 454 437 408 381 364 394 415 431 427 401 359 313 261 201 144 181 236 290 316 325 312 274 215 168 181 239 314 388 462 528 573 588 568 517 441 367 316 286 266 243 209 163 102 45 -1 6 35 91 129 147 142 114 82 64 115 200 300 410 506 585 642 674 680 659 621 578 540 510 487 468 450 433 415 402 397 399 402 407 412 428 450 479 514 552 588 618 637 637 620 592 559 526 494 456 413 355 284 204 119 29 -1 -1 -1 -1 -1 -1 -1 -1 -1 -1 -1 -1 -1 -1 -1 -1 -1 -1 -1 -1 -1 -1 -1 -1 -1 -1 -1 -1 -1 -1 -1 -1 -1 -1 -1 -1 -1 -1 -1 -1 -1 -1 -1 -1
-1 -1 -1 -1 -1 -1 -1 -1 -1 -1 -1 -1 68 154 242 345 460 579 696 792 859 890 873 812 714 619 527 495 492 464 458 455 480 489 497 498 480 449 419 393 420 445 466 472 464 440 404 361 307 239 201 188 268 319 346 345 322 273 210 159 172 217 291 369 443 508 559 585 581 545 492 440 390 346 306 259 203 139 80 19 18 -1 38 71 122 159 178 171 147 135 140 201 293 389 489 575 638 673 680 665 634 596 560 533 510 489 466 440 409 380 372 376 392 409 428 445 465 486 510 540 572 603 617 611 581 539 499 467 439 412 386 350 302 241 170 89 5 -1 -1 -1 -1 -1 -1 -1 -1 -1 -1 -1 -1 -1 -1 -1 -1 -1 -1 -1 -1 -1 -1 -1 -1 -1 -1 -1 -1 -1 -1 -1 -1 -1 -1 -1 -1 -1 -1 -1 -1 -1 -1 -1
-1 -1 -1 -1 -1 -1 -1 -1 -1 -1 -1 -1 -1 -1 34 174 331 488 630 743 824 864 860 810 726 620 537 469 463 500 514 526 543 555 547 524 487 450 419 446 470 500 513 511 495 470 436 388 327 266 205 244 289 343 365 361 329 275 209 164 157 213 273 351 426 495 549 586 593 575 537 490 438 376 311 238 159 98 40 52 49 42 12 51 100 158 197 215 216 206 214 244 312 397 485 570 634 668 676 661 629 591 554 525 505 487 463 432 397 361 331 336 354 382 408 427 443 459 480 506 545 577 590 576 528 462 410 375 350 338 331 318 290 248 192 128 56 -1 -1 -1 -1 -1 -1 -1 -1 -1 -1 -1 -1 -1 -1 -1 -1 -1 -1 -1 -1 -1 -1 -1 -1 -1 -1 -1 -1 -1 -1 -1 -1 -1 -1 -1 -1 -1 -1 -1 -1 -1 -1 -1
-1 -1 -1 -1 -1 -1 -1 -1 -1 -1 -1 -1 -1 -1 -1 62 248 423 575 702 791 842 848 812 738 649 559 533 543 572 599 609 612 605 581 538 493 450 468 495 530 547 551 539 516 486 450 403 345 274 258 262 318 357 379 372 335 271 207 166 184 209 276 341 413 485 545 585 602 594 566 520 456 381 290 186 107 46 61 85 97 70 31 13 77 143 200 242 266 278 288 314 359 428 504 578 633 665 666 644 604 561 519 489 474 461 443 414 377 333 296 279 302 333 359 376 386 400 418 456 504 544 562 539 473 377 292 246 232 242 257 265 252 226 186 135 78 20 -1 -1 -1 -1 -1 -1 -1 -1 -1 -1 -1 -1 -1 -1 -1 -1 -1 -1 -1 -1 -1 -1 -1 -1 -1 -1 -1 -1 -1 -1 -1 -1 -1 -1 -1 -1 -1 -1 -1 -1 -1 -1
-1 -1 -1 -1 -1 -1 -1 -1 -1 -1 -1 -1 -1 -1 -1 16 208 386 543 670 764 821 836 810 751 672 627 617 633 654 667 671 661 638 600 549 495 499 521 555 578 586 575 550 520 488 455 416 365 325 303 315 337 375 390 381 338 268 197 199 220 250 283 347 414 479 542 585 607 605 579 531 464 374 258 155 68 71 98 130 136 102 46 15 53 117 188 246 294 328 354 379 422 475 538 595 639 659 650 614 562 506 457 428 416 412 400 376 339 293 249 227 244 272 296 303 310 318 351 405 465 517 539 513 429 312 191 100 104 128 168 189 194 176 145 103 56 9 -1 -1 -1 -1 -1 -1 -1 -1 -1 -1 -1 -1 -1 -1 -1 -1 -1 -1 -1 -1 -1 -1 -1 -1 -1 -1 -1 -1 -1 -1 -1 -1 -1 -1 -1 -1 -1 -1 -1 -1 -1 -1
-1 -1 -1 -1 -1 -1 -1 -1 -1 -1 -1 -1 -1 -1 -1 20 203 372 523 647 742 803 826 810 764 722 695 696 706 714 716 706 687 656 612 563 535 546 578 604 616 607 581 544 508 476 451 424 398 374 359 362 380 395 405 390 340 262 202 221 265 296 325 365 425 484 538 581 606 608 586 539 470 372 267 153 114 123 154 178 176 145 95 62 44 98 160 236 301 354 398 439 478 525 575 618 645 651 627 575 506 431 370 340 335 341 336 316 283 239 195 183 190 215 231 235 230 257 310 379 453 507 527 498 420 290 154 53 -1 10 47 95 104 89 56 17 -1 -1 -1 -1 -1 -1 -1 -1 -1 -1 -1 -1 -1 -1 -1 -1 -1 -1 -1 -1 -1 -1 -1 -1 -1 -1 -1 -1 -1 -1 -1 -1 -1 -1 -1 -1 -1 -1 -1 -1 -1 -1 -1 -1
-1 -1 -1 -1 -1 -1 -1 -1 -1 -1 -1 -1 -1 -1 -1 33 203 364 500 625 718 785 818 816 794 771 758 753 755 751 738 718 693 662 628 595 590 603 626 642 636 611 573 526 485 455 439 428 420 412 408 410 418 426 422 399 342 258 209 244 301 345 370 401 442 491 538 576 600 605 590 548 484 397 293 226 200 204 217 228 225 200 164 127 101 78 139 206 288 360 423 478 527 569 608 636 647 634 594 531 443 353 289 250 263 263 258 248 229 191 171 160 163 179 188 187 203 245 308 386 457 510 528 503 428 323 201 87 -1 -1 -1 -1 -1 -1 -1 -1 -1 -1 -1 -1 -1 -1 -1 -1 -1 -1 -1 -1 -1 -1 -1 -1 -1 -1 -1 -1 -1 -1 -1 -1 -1 -1 -1 -1 -1 -1 -1 -1 -1 -1 -1 -1 -1 -1 -1 -1 -1 -1 -1 -1
-1 -1 -1 -1 -1 -1 -1 -1 -1 -1 -1 -1 -1 -1 -1 9 172 328 472 589 690 763 807 824 821 811 800 791 778 758 734 706 680 659 643 634 639 655 666 662 641 602 554 505 458 436 425 426 433 440 449 452 455 455 441 405 340 264 215 259 335 385 413 436 469 505 539 568 589 599 591 560 506 432 361 314 292 286 288 288 279 264 236 208 167 134 116 187 260 350 429 500 556 600 631 645 637 605 551 474 381 298 243 249 229 225 219 215 208 211 199 189 182 172 177 199 228 272 336 405 473 520 536 513 456 368 269 156 43 -1 -1 -1 -1 -1 -1 -1 -1 -1 -1 -1 -1 -1 -1 -1 -1 -1 -1 -1 -1 -1 -1 -1 -1 -1 -1 -1 -1 -1 -1 -1 -1 -1 -1 -1 -1 -1 -1 -1 -1 -1 -1 -1 -1 -1 -1 -1 -1 -1 -1 -1
-1 -1 -1 -1 -1 -1 -1 -1 -1 -1 -1 -1 -1 -1 -1 -1 79 245 400 539 644 726 782 816 830 830 821 802 773 738 705 673 652 647 654 667 683 694 692 673 636 589 539 491 458 427 418 422 443 464 480 487 489 479 453 404 339 260 223 277 362 421 451 472 493 520 543 561 576 588 587 568 530 480 430 390 367 355 349 347 339 326 307 284 251 209 178 163 242 328 424 506 572 617 641 639 612 562 493 408 327 265 286 291 294 280 273 266 267 261 252 236 218 207 207 229 262 308 363 430 489 532 545 527 475 400 309 217 119 -1 -1 -1 -1 -1 -1 -1 -1 -1 -1 -1 -1 -1 -1 -1 -1 -1 -1 -1 -1 -1 -1 -1 -1 -1 -1 -1 -1 -1 -1 -1 -1 -1 -1 -1 -1 -1 -1 -1 -1 -1 -1 -1 -1 -1 -1 -1 -1 -1 -1 -1
-1 -1 -1 -1 -1 -1 -1 -1 -1 -1 -1 -1 -1 -1 -1 -1 -1 98 278 436 560 654 726 779 811 824 815 786 745 698 658 628 615 630 662 692 713 718 704 671 628 581 537 501 467 440 419 432 462 491 510 521 518 497 452 390 313 254 232 305 388 451 485 501 518 532 543 550 559 568 575 568 550 518 482 446 418 400 396 395 394 386 372 355 329 293 245 219 221 313 415 507 578 623 636 618 572 506 426 350 287 306 341 377 383 376 365 353 338 318 295 269 246 231 230 247 281 327 388 447 505 542 552 528 476 403 323 231 120 24 -1 -1 15 47 35 6 -1 -1 -1 -1 -1 -1 -1 -1 -1 -1 -1 -1 -1 -1 -1 -1 -1 -1 -1 -1 -1 -1 -1 -1 -1 -1 -1 -1 -1 -1 -1 -1 -1 -1 -1 -1 -1 -1 -1 -1 -1 -1 -1 -1
-1 -1 -1 -1 -1 -1 -1 -1 -1 -1 -1 -1 -1 -1 -1 -1 -1 -1 98 272 411 528 625 706 768 796 786 750 698 647 604 581 579 617 665 708 731 727 699 656 613 575 543 512 483 448 431 453 491 524 548 555 546 509 445 355 279 230 273 340 416 477 513 530 538 540 537 530 530 538 551 558 555 539 512 477 444 423 415 420 430 435 432 420 402 367 326 278 256 316 412 509 580 618 619 581 518 439 369 307 336 371 420 455 468 462 446 419 389 354 315 278 247 228 224 242 279 335 394 459 511 546 549 519 460 385 299 199 102 -1 39 76 126 137 122 89 47 3 -1 -1 -1 -1 -1 -1 -1 -1 -1 -1 -1 -1 -1 -1 -1 -1 -1 -1 -1 -1 -1 -1 -1 -1 -1 -1 -1 -1 -1 -1 -1 -1 -1 -1 -1 -1 -1 -1 -1 -1 -1 -1
-1 -1 -1 -1 -1 -1 -1 -1 -1 -1 -1 -1 -1 -1 -1 -1 -1 -1 -1 51 207 344 481 608 708 751 745 702 647 593 558 540 558 605 666 714 735 721 679 628 587 560 537 514 482 453 442 481 528 568 592 595 573 521 429 325 238 251 310 384 450 504 540 554 553 542 523 503 491 499 518 533 543 542 524 489 451 422 410 419 442 464 478 479 465 443 406 360 321 340 422 510 576 604 589 533 455 386 326 352 396 455 498 525 533 521 492 454 408 359 310 266 229 208 205 221 263 322 390 456 511 542 538 499 431 344 245 158 59 97 133 180 197 192 165 122 73 19 -1 -1 -1 -1 -1 -1 -1 -1 -1 -1 -1 -1 -1 -1 -1 -1 -1 -1 -1 -1 -1 -1 -1 -1 -1 -1 -1 -1 -1 -1 -1 -1 -1 -1 -1 -1 -1 -1 -1 -1 -1 -1
-1 -1 -1 -1 -1 -1 -1 -1 -1 -1 -1 -1 -1 -1 -1 -1 -1 -1 -1 -1 -1 128 326 515 643 702 699 654 598 550 524 523 546 596 661 714 730 701 643 581 539 520 509 491 465 440 464 508 566 613 639 638 604 533 434 308 239 273 351 428 490 538 567 576 564 540 508 476 457 462 480 500 521 531 520 488 446 407 390 402 433 471 506 524 527 514 492 453 412 395 437 512 569 585 554 483 404 345 371 419 476 529 566 581 575 550 509 456 396 336 284 243 211 193 189 203 238 299 371 445 502 529 515 464 385 286 199 114 146 183 228 249 247 220 173 117 54 -1 -1 -1 -1 -1 -1 -1 -1 -1 -1 -1 -1 -1 -1 -1 -1 -1 -1 -1 -1 -1 -1 -1 -1 -1 -1 -1 -1 -1 -1 -1 -1 -1 -1 -1 -1 -1 -1 -1 -1 -1 -1 -1
-1 -1 -1 -1 -1 -1 -1 -1 -1 -1 -1 -1 -1 -1 -1 -1 -1 -1 -1 -1 -1 -1 184 417 579 654 654 612 557 528 512 518 547 595 659 712 721 677 598 526 487 469 464 464 439 446 485 543 602 656 684 680 638 559 445 329 253 298 390 470 533 576 596 596 575 537 495 460 439 435 447 468 494 511 507 478 432 389 369 380 412 464 514 554 577 584 574 548 505 467 475 521 561 565 520 448 377 380 427 497 557 594 617 618 594 550 495 430 361 298 250 220 201 192 192 198 220 271 347 426 487 507 482 415 324 237 158 180 219 268 298 299 273 221 151 72 -1 -1 -1 -1 -1 -1 -1 -1 -1 -1 -1 -1 -1 -1 -1 -1 -1 -1 -1 -1 -1 -1 -1 -1 -1 -1 -1 -1 -1 -1 -1 -1 -1 -1 -1 -1 -1 -1 -1 -1 -1 -1 -1 -1
-1 -1 -1 -1 -1 -1 -1 -1 -1 -1 6 -1 -1 -1 -1 -1 -1 -1 -1 -1 -1 -1 72 320 518 611 620 581 551 524 520 531 566 614 671 719 722 664 580 506 470 472 475 453 455 473 522 587 646 696 725 722 676 589 474 348 270 323 426 516 576 613 626 615 583 541 491 454 433 425 429 442 465 486 491 465 417 373 356 364 397 446 510 568 615 641 649 631 592 544 527 544 563 549 498 428 398 423 492 568 622 653 657 638 592 529 456 386 315 256 219 203 202 205 212 218 228 257 322 402 464 482 446 365 270 197 215 252 301 335 349 330 278 196 99 -1 -1 -1 -1 -1 -1 -1 -1 -1 -1 -1 -1 -1 -1 -1 -1 -1 -1 -1 -1 -1 -1 -1 -1 -1 -1 -1 -1 -1 -1 -1 -1 -1 -1 -1 -1 -1 -1 -1 -1 -1 -1 -1 -1 -1
-1 -1 -1 -1 -1 -1 -1 -1 -1 42 104 128 117 120 98 84 39 -1 -1 -1 -1 -1 9 266 463 584 605 599 578 553 549 567 605 657 709 747 743 687 615 553 526 517 513 503 504 532 581 642 703 746 769 761 708 621 499 358 285 346 458 554 619 650 652 630 593 539 488 452 434 435 437 437 450 471 481 457 410 380 365 360 383 435 499 577 642 688 709 701 664 617 587 581 577 546 482 432 420 472 554 629 680 698 687 645 581 497 410 334 271 223 200 198 212 230 247 262 269 285 322 386 446 459 421 336 255 251 289 338 375 394 385 338 257 148 28 -1 -1 -1 -1 -1 -1 -1 -1 -1 -1 -1 -1 -1 -1 -1 -1 -1 -1 -1 -1 -1 -1 -1 -1 -1 -1 -1 -1 -1 -1 -1 -1 -1 -1 -1 -1 -1 -1 -1 -1 -1 -1 -1 -1 -1
-1 -1 -1 -1 -1 -1 -1 -1 -1 82 188 237 264 257 266 247 228 170 99 29 -1 -1 85 253 456 577 642 651 637 625 609 625 665 719 777 807 794 751 697 649 613 592 582 575 586 611 657 712 765 805 818 797 740 646 518 380 299 363 482 588 655 684 678 646 594 538 482 450 445 450 453 458 458 473 480 472 435 414 393 372 373 415 490 575 661 723 756 757 725 683 650 630 606 553 483 432 450 519 608 683 727 735 705 648 563 469 372 292 242 211 198 203 223 256 291 315 335 343 369 405 444 458 418 362 324 342 382 420 442 438 399 323 215 85 -1 -1 -1 -1 -1 -1 -1 -1 -1 -1 -1 -1 -1 -1 -1 -1 -1 -1 -1 -1 -1 -1 -1 -1 -1 -1 -1 -1 -1 -1 6 -1 -1 -1 -1 -1 -1 -1 -1 -1 -1 -1 -1 -1 -1 -1
-1 -1 -1 -1 -1 -1 -1 -1 -1 128 260 344 381 406 401 407 388 358 295 233 187 195 248 356 487 620 692 728 727 711 712 709 748 802 857 887 879 845 799 761 721 688 667 665 673 704 741 791 834 863 864 830 764 664 542 402 317 377 507 619 689 714 700 655 596 530 482 456 455 469 483 489 496 494 507 497 494 472 444 406 386 401 467 564 661 744 793 802 782 750 716 687 643 575 488 444 480 567 660 732 769 765 722 646 552 449 352 278 239 228 217 212 235 276 326 370 397 422 433 458 475 482 461 432 429 445 475 495 494 461 389 281 152 6 -1 -1 -1 -1 -1 -1 -1 -1 -1 -1 -1 -1 -1 -1 -1 -1 -1 -1 -1 -1 -1 -1 -1 -1 -1 -1 -1 -1 18 50 56 33 -1 -1 -1 -1 -1 -1 -1 -1 -1 -1 -1 -1 -1 -1
-1 -1 -1 -1 -1 -1 -1 -1 50 211 336 438 499 522 542 539 543 526 480 426 397 395 443 508 598 691 771 804 825 826 812 831 848 901 945 980 979 950 919 878 840 801 774 761 774 795 833 871 904 918 905 859 777 675 548 415 338 414 548 654 722 742 720 665 594 532 481 459 463 485 514 535 545 552 549 562 555 548 517 477 438 422 447 534 645 747 815 842 837 812 785 744 685 596 503 454 508 610 708 777 804 787 730 641 536 432 347 293 270 262 248 230 242 287 346 406 453 484 508 518 530 532 529 524 527 543 555 554 524 456 353 217 62 -1 -1 -1 -1 1 18 13 -1 -1 -1 -1 -1 -1 -1 -1 -1 -1 -1 -1 -1 -1 -1 -1 -1 -1 -1 8 34 58 86 108 107 71 5 -1 -1 -1 -1 -1 -1 -1 -1 -1 -1 -1 -1 -1
-1 -1 -1 -1 -1 -1 -1 1 168 315 446 534 602 643 656 677 684 674 650 605 578 588 621 675 732 801 854 902 921 932 943 941 971 999 1051 1077 1084 1065 1031 1001 961 925 893 876 872 892 921 951 969 966 935 870 776 657 524 411 365 472 601 700 757 769 737 673 602 529 481 463 473 509 548 583 606 617 628 628 640 629 613 579 530 488 475 513 620 735 828 877 889 875 843 795 716 615 505 470 531 650 754 816 832 800 725 621 505 405 341 311 306 304 290 263 253 290 355 423 488 536 566 586 592 598 605 609 617 622 617 589 525 425 287 125 -1 -1 -1 21 84 110 112 78 10 -1 -1 -1 -1 -1 -1 -1 -1 -1 -1 -1 -1 -1 19 37 59 68 85 98 119 141 155 167 152 107 31 -1 -1 -1 -1 -1 -1 -1 -1 -1 -1 -1 -1 -1
-1 -1 -1 -1 -1 -1 -1 123 296 444 565 661 713 752 781 797 819 812 789 774 746 756 782 828 878 914 965 999 1027 1048 1052 1074 1082 1115 1145 1182 1191 1176 1147 1115 1083 1047 1016 996 982 989 1005 1025 1025 1000 943 853 736 599 476 383 445 542 661 750 795 795 754 686 605 532 486 475 499 539 589 633 668 693 704 715 716 724 715 689 649 595 548 548 612 728 839 910 938 929 893 827 731 609 524 491 573 693 796 852 854 803 707 583 461 369 324 320 334 344 332 302 275 297 351 429 504 571 618 643 659 667 676 685 691 685 656 595 498 361 194 46 -1 -1 78 159 200 206 179 121 33 -1 -1 -1 -1 -1 -1 -1 18 34 36 52 71 95 109 131 147 164 171 189 205 218 228 221 195 136 48 -1 -1 -1 -1 -1 -1 -1 -1 -1 -1 -1 -1 -1
-1 -1 -1 -1 -1 -1 8 217 405 562 690 783 847 875 894 919 935 944 929 905 905 902 932 967 1006 1042 1071 1114 1141 1155 1174 1180 1209 1222 1252 1280 1297 1285 1259 1229 1197 1167 1136 1108 1091 1078 1085 1084 1062 1004 912 793 652 528 415 443 524 629 725 799 832 819 769 695 615 544 502 505 536 587 636 688 729 764 789 797 809 811 816 805 769 718 660 625 654 753 858 944 984 976 926 839 713 609 526 556 636 751 841 883 868 797 681 541 418 338 311 321 350 374 371 341 309 302 348 422 509 590 655 696 717 732 743 752 750 728 671 573 440 271 115 -1 47 125 216 276 294 272 215 130 23 -1 -1 -1 -1 -1 -1 41 95 120 129 142 164 185 201 216 239 251 266 276 287 294 290 274 229 153 48 -1 -1 -1 -1 -1 -1 -1 -1 -1 -1 -1 -1 -1
-1 -1 -1 -1 -1 -1 32 258 466 644 788 896 968 1006 1022 1032 1056 1062 1055 1044 1031 1047 1061 1097 1127 1160 1190 1225 1254 1274 1278 1298 1318 1341 1356 1379 1394 1388 1367 1335 1306 1276 1246 1214 1184 1168 1149 1129 1074 973 834 685 561 452 485 538 622 717 792 848 864 841 783 707 624 557 534 548 584 637 694 745 792 835 863 884 892 904 908 907 882 837 784 732 734 798 899 981 1025 1016 946 823 699 591 599 644 728 819 887 909 875 787 657 520 406 343 314 323 358 395 402 374 334 316 341 410 500 595 676 732 767 788 804 811 799 751 659 521 352 193 45 94 172 272 337 366 355 299 209 94 -1 -1 -1 -1 -1 -1 -1 95 167 200 221 229 251 273 291 305 323 340 350 362 368 362 348 311 251 155 37 -1 -1 -1 -1 -1 -1 -1 -1 -1 -1 -1 -1 -1
-1 -1 -1 -1 -1 -1 -1 234 467 674 841 973 1065 1119 1145 1160 1163 1177 1177 1167 1168 1166 1190 1213 1249 1275 1306 1335 1365 1384 1399 1404 1426 1448 1466 1478 1485 1481 1461 1434 1405 1376 1343 1308 1273 1240 1207 1156 1069 927 743 585 492 531 585 660 735 803 864 895 898 862 795 714 639 586 566 584 627 682 742 801 853 898 938 960 979 988 999 997 981 945 898 852 833 877 952 1027 1066 1051 967 824 684 668 699 758 826 897 938 936 883 782 662 535 449 384 338 328 366 411 425 397 350 320 331 391 482 588 683 757 807 838 858 860 835 765 635 462 282 134 156 224 323 395 431 426 374 280 155 5 -1 -1 -1 -1 -1 -1 38 146 225 277 299 320 331 357 377 394 407 419 431 436 438 423 389 337 251 147 2 -1 -1 -1 -1 -1 -1 -1 -1 -1 -1 -1 -1 -1
-1 -1 -1 -1 -1 -1 -1 145 403 641 845 1008 1127 1207 1254 1273 1280 1284 1291 1291 1285 1292 1303 1329 1357 1390 1415 1442 1471 1495 1505 1522 1529 1549 1567 1576 1577 1568 1550 1523 1496 1465 1431 1388 1343 1301 1251 1176 1068 906 722 593 605 652 719 782 843 894 930 945 928 879 801 722 650 603 588 603 645 707 775 842 903 955 998 1033 1053 1072 1079 1082 1069 1045 1008 965 946 963 1024 1079 1111 1091 1004 872 768 770 819 874 927 969 990 966 901 802 685 591 509 432 368 343 379 429 443 411 356 315 318 368 464 572 683 773 840 881 903 904 870 782 639 449 281 251 296 376 452 491 494 446 347 212 48 -1 -1 -1 -1 -1 -1 -1 91 197 281 338 376 395 416 432 459 476 487 495 503 501 494 469 421 345 252 120 2 -1 -1 -1 -1 -1 -1 -1 -1 -1 -1 -1 -1 -1
-1 -1 -1 -1 -1 -1 -1 23 296 556 796 994 1150 1263 1334 1374 1388 1392 1399 1401 1408 1406 1421 1437 1463 1492 1521 1548 1573 1594 1614 1621 1637 1644 1656 1665 1660 1649 1629 1604 1574 1543 1503 1454 1403 1351 1285 1205 1092 956 823 763 765 802 851 901 942 975 989 985 952 888 809 724 652 603 582 592 637 703 782 861 933 997 1046 1088 1120 1140 1155 1157 1153 1133 1106 1073 1049 1058 1091 1135 1156 1138 1064 962 899 890 935 982 1018 1043 1040 1006 934 837 736 641 547 459 387 361 400 452 463 422 358 308 307 363 449 569 686 788 864 917 943 944 909 827 689 524 415 411 460 518 554 563 524 431 290 106 -1 -1 -1 -1 -1 -1 -1 64 158 253 334 398 441 470 490 509 528 548 561 565 564 557 537 503 442 360 247 134 2 -1 -1 -1 -1 -1 -1 -1 -1 -1 -1 -1 -1 -1
-1 -1 -1 -1 -1 -1 -1 -1 170 445 706 939 1131 1279 1381 1445 1480 1491 1495 1506 1509 1519 1523 1543 1564 1591 1618 1646 1667 1691 1708 1722 1729 1736 1741 1740 1736 1722 1701 1671 1639 1604 1559 1508 1452 1392 1331 1250 1155 1058 980 935 935 951 975 1006 1032 1042 1039 1011 959 888 802 715 639 588 560 572 610 676 763 853 940 1015 1077 1127 1167 1198 1216 1226 1224 1213 1193 1169 1148 1147 1165 1191 1206 1187 1134 1067 1023 1019 1040 1076 1100 1105 1093 1049 977 882 776 662 546 449 389 376 432 482 488 441 363 310 311 365 464 580 703 803 887 947 981 987 958 885 770 647 586 574 606 634 641 609 533 406 227 46 -1 -1 -1 -1 -1 -1 52 146 234 314 391 454 501 533 557 575 592 610 622 626 617 599 572 526 461 370 272 163 53 -1 -1 -1 -1 -1 -1 -1 -1 -1 -1 -1 -1 -1
-1 -1 -1 -1 -1 -1 -1 -1 64 332 604 855 1077 1257 1394 1485 1540 1570 1584 1592 1607 1613 1627 1636 1660 1683 1708 1729 1753 1774 1793 1804 1814 1815 1815 1809 1799 1785 1760 1727 1692 1652 1605 1551 1496 1442 1381 1310 1234 1170 1120 1086 1070 1077 1087 1097 1104 1098 1071 1021 949 863 772 688 622 578 573 567 585 642 722 819 916 1006 1083 1145 1194 1234 1264 1281 1286 1284 1271 1255 1238 1230 1240 1253 1257 1243 1208 1167 1142 1127 1136 1154 1165 1164 1140 1093 1019 920 796 652 514 412 373 412 471 524 524 467 383 323 330 391 491 610 723 828 912 978 1019 1030 1009 949 862 777 726 715 722 724 700 641 544 401 234 66 5 -1 -1 -1 -1 50 132 227 308 386 453 509 554 587 612 629 646 659 672 672 659 633 596 546 476 395 303 208 116 17 -1 -1 -1 -1 -1 -1 -1 -1 -1 -1 -1 -1
-1 -1 -1 -1 -1 -1 -1 -1 19 271 529 779 1008 1209 1374 1494 1573 1622 1652 1672 1685 1700 1713 1728 1743 1768 1787 1807 1827 1845 1862 1876 1882 1882 1876 1866 1852 1832 1805 1770 1731 1687 1637 1586 1532 1483 1427 1365 1309 1261 1223 1193 1180 1173 1172 1171 1161 1136 1090 1019 922 818 725 656 612 620 617 614 609 619 678 761 864 971 1063 1141 1205 1255 1295 1323 1338 1340 1339 1326 1316 1307 1307 1314 1314 1300 1276 1253 1230 1221 1214 1218 1220 1210 1183 1133 1056 946 803 633 472 382 389 451 526 572 568 505 413 346 356 428 531 644 755 855 943 1010 1054 1070 1057 1012 947 884 842 821 807 784 741 668 569 449 316 218 155 133 108 105 119 167 227 302 380 450 510 559 597 630 653 672 687 699 705 704 688 659 618 563 500 423 342 262 174 79 -1 -1 -1 -1 -1 -1 -1 -1 -1 -1 -1 -1
-1 -1 -1 -1 -1 -1 -1 -1 56 294 527 753 965 1168 1340 1481 1584 1654 1699 1731 1754 1772 1787 1803 1823 1840 1859 1875 1890 1905 1920 1931 1933 1928 1919 1904 1886 1863 1834 1798 1756 1709 1657 1606 1554 1504 1454 1403 1354 1316 1283 1261 1248 1237 1229 1219 1199 1161 1099 1006 889 769 677 629 652 678 700 692 674 658 649 696 798 911 1021 1116 1195 1261 1310 1349 1375 1389 1390 1388 1379 1372 1367 1366 1363 1350 1334 1314 1300 1287 1277 1268 1262 1248 1219 1168 1087 975 816 626 459 394 427 508 586 627 614 543 442 366 386 465 569 678 788 885 971 1041 1086 1106 1099 1067 1018 966 926 892 862 822 766 693 607 513 427 360 312 272 244 229 243 277 328 381 445 504 555 598 631 658 680 696 711 721 726 721 706 678 638 589 527 460 389 314 231 138 36 -1 -1 -1 -1 -1 -1 -1 -1 -1 -1 -1
-1 -1 -1 -1 -1 -1 -1 -1 150 368 590 791 981 1153 1319 1460 1578 1666 1727 1771 1803 1828 1848 1865 1883 1900 1916 1929 1941 1952 1962 1966 1961 1950 1933 1914 1895 1872 1843 1807 1763 1713 1658 1602 1548 1499 1452 1407 1366 1329 1303 1284 1271 1262 1253 1241 1217 1172 1097 991 861 730 641 648 697 753 787 791 767 734 700 686 740 845 968 1081 1175 1253 1317 1362 1397 1420 1431 1432 1429 1420 1414 1409 1400 1389 1375 1359 1342 1328 1312 1301 1289 1272 1245 1196 1123 1011 859 670 506 455 497 579 650 681 653 570 454 373 398 490 601 708 812 914 999 1068 1116 1139 1136 1112 1070 1022 976 932 884 832 773 705 634 568 511 465 424 387 355 340 348 378 415 459 503 550 588 620 647 668 685 701 714 725 729 726 714 690 654 608 557 497 433 362 280 191 95 -1 -1 -1 -1 -1 -1 -1 -1 -1 -1 -1
-1 -1 -1 -1 -1 -1 -1 17 241 462 674 868 1034 1185 1323 1452 1568 1667 1739 1792 1834 1866 1891 1910 1928 1943 1957 1967 1977 1985 1987 1982 1966 1942 1916 1893 1874 1856 1830 1795 1749 1694 1633 1570 1511 1460 1415 1373 1334 1301 1276 1262 1250 1245 1241 1235 1214 1169 1090 984 846 711 640 668 743 817 866 882 872 840 800 763 755 819 930 1043 1152 1242 1315 1372 1413 1441 1457 1464 1460 1452 1442 1433 1423 1411 1398 1383 1366 1346 1326 1308 1292 1277 1256 1220 1159 1061 922 753 609 559 600 660 717 728 684 577 459 370 386 492 617 735 839 935 1024 1094 1142 1167 1168 1145 1106 1055 997 932 869 805 743 685 628 581 545 517 491 464 442 431 437 457 486 515 547 575 601 623 640 655 668 680 695 706 714 716 708 689 661 623 577 526 464 398 322 236 145 45 -1 -1 -1 -1 -1 -1 -1 -1 -1 -1
-1 -1 -1 -1 -1 -1 -1 15 278 522 744 938 1102 1238 1356 1468 1574 1663 1742 1801 1848 1886 1913 1934 1950 1965 1976 1986 1994 2000 1997 1982 1950 1908 1868 1838 1823 1810 1792 1760 1715 1655 1582 1506 1439 1386 1341 1299 1264 1231 1212 1198 1192 1192 1199 1202 1190 1154 1085 977 849 717 645 687 773 859 921 953 959 948 915 879 857 868 932 1031 1136 1235 1315 1376 1423 1455 1474 1480 1475 1462 1446 1433 1421 1412 1402 1389 1372 1349 1320 1292 1273 1259 1250 1228 1184 1109 998 859 742 700 712 754 782 774 701 596 459 397 411 491 622 750 862 962 1049 1119 1168 1194 1194 1172 1127 1067 991 901 808 730 668 618 577 546 527 519 512 503 493 492 498 510 525 544 560 574 586 599 608 615 623 634 650 666 681 688 685 671 650 620 584 538 485 420 349 266 174 76 -1 -1 -1 -1 -1 -1 -1 -1 -1 -1
-1 -1 -1 -1 -1 -1 -1 -1 228 511 758 967 1138 1277 1392 1493 1586 1669 1738 1801 1850 1886 1913 1932 1948 1960 1972 1983 1994 2000 1994 1970 1925 1862 1797 1758 1739 1736 1725 1705 1665 1601 1515 1420 1343 1279 1232 1193 1160 1135 1118 1109 1107 1116 1130 1145 1149 1127 1073 982 854 723 653 689 782 870 942 988 1012 1018 1013 993 977 974 995 1059 1148 1236 1318 1382 1431 1465 1484 1486 1473 1449 1424 1403 1392 1385 1384 1377 1363 1340 1310 1272 1239 1226 1220 1218 1196 1151 1074 975 891 836 830 844 853 822 744 628 536 485 497 546 635 761 880 986 1073 1145 1195 1219 1218 1191 1140 1066 966 844 712 616 552 516 489 474 472 480 491 502 509 516 523 530 534 538 542 542 545 545 547 549 551 566 583 613 637 647 644 631 612 594 569 533 485 426 354 271 173 71 -1 -1 -1 -1 -1 -1 -1 -1 -1 -1
-1 -1 -1 -1 -1 -1 -1 -1 116 416 693 923 1110 1263 1388 1492 1584 1662 1728 1783 1827 1861 1885 1903 1915 1928 1941 1958 1977 1986 1979 1952 1899 1823 1733 1662 1642 1636 1640 1632 1604 1541 1444 1329 1229 1155 1106 1075 1052 1033 1020 1016 1013 1025 1045 1072 1091 1089 1054 979 870 743 660 687 755 846 916 971 1010 1039 1060 1072 1073 1076 1088 1121 1183 1259 1328 1391 1438 1472 1488 1485 1463 1423 1380 1354 1336 1339 1345 1346 1339 1322 1295 1258 1216 1185 1187 1191 1192 1174 1135 1079 1017 966 935 931 922 884 810 727 666 624 620 652 706 791 898 1005 1099 1170 1219 1241 1236 1205 1146 1057 935 775 622 496 435 406 396 394 398 417 442 466 486 500 509 511 508 502 493 489 480 473 465 455 464 475 515 561 589 594 581 559 546 538 526 502 463 407 334 246 144 34 -1 -1 -1 -1 -1 -1 -1 -1 -1 -1
-1 -1 -1 -1 -1 -1 -1 -1 -1 267 552 791 988 1154 1301 1427 1532 1616 1680 1730 1766 1795 1819 1835 1850 1867 1886 1919 1948 1963 1957 1928 1874 1795 1695 1599 1544 1542 1549 1555 1535 1481 1383 1254 1129 1040 998 983 971 956 953 945 942 943 958 989 1023 1039 1029 980 889 779 699 671 729 787 852 904 952 1003 1056 1096 1122 1142 1159 1187 1231 1289 1350 1403 1447 1477 1489 1480 1451 1406 1347 1294 1281 1276 1291 1299 1301 1293 1278 1251 1214 1183 1152 1161 1168 1175 1167 1148 1114 1073 1037 1011 994 958 906 851 806 779 761 779 816 865 944 1037 1126 1199 1243 1261 1251 1211 1144 1043 900 741 553 424 351 330 328 331 340 359 386 412 434 453 461 460 454 441 429 411 400 381 362 359 358 403 468 519 542 527 490 455 443 445 452 440 413 361 288 197 88 -1 -1 -1 -1 -1 -1 -1 -1 -1 -1 -1
-1 -1 -1 -1 -1 -1 -1 -1 -1 113 340 558 743 920 1101 1270 1408 1507 1577 1619 1646 1670 1699 1724 1754 1778 1832 1880 1918 1933 1925 1895 1842 1768 1681 1583 1499 1469 1477 1487 1479 1431 1340 1213 1085 1001 964 954 948 944 931 923 911 901 894 918 951 984 997 976 917 833 757 722 704 745 780 821 868 929 1000 1060 1108 1149 1188 1227 1269 1321 1369 1418 1454 1479 1487 1477 1448 1401 1341 1277 1223 1223 1226 1244 1251 1260 1256 1242 1216 1183 1154 1129 1142 1151 1173 1181 1175 1153 1123 1094 1070 1043 1007 972 941 916 908 908 933 969 1013 1083 1160 1226 1268 1280 1263 1217 1138 1025 890 709 549 396 329 309 308 311 318 333 345 356 366 380 387 389 383 372 350 327 302 276 260 248 285 361 441 495 498 450 370 309 287 317 340 351 330 290 221 130 18 -1 -1 -1 -1 -1 -1 -1 -1 -1 -1 -1
-1 -1 -1 -1 -1 -1 -1 -1 -1 -1 144 262 396 584 806 1039 1209 1331 1401 1439 1448 1474 1514 1580 1632 1720 1793 1856 1890 1898 1880 1844 1792 1730 1658 1577 1501 1443 1433 1438 1433 1398 1322 1221 1117 1038 1007 995 986 974 958 941 926 907 889 868 891 923 956 968 947 896 842 792 767 743 756 777 805 852 912 971 1034 1102 1170 1235 1292 1341 1388 1427 1459 1477 1480 1469 1443 1404 1348 1284 1225 1175 1176 1180 1201 1218 1228 1226 1211 1185 1154 1126 1110 1133 1167 1196 1211 1210 1195 1171 1146 1124 1103 1079 1061 1046 1035 1038 1047 1070 1104 1146 1204 1260 1292 1299 1275 1219 1132 1022 876 716 544 427 359 343 340 335 335 334 321 298 290 286 296 303 311 296 268 237 201 174 153 173 251 351 435 481 467 384 251 121 104 147 204 223 219 183 131 45 -1 -1 -1 -1 -1 -1 -1 -1 -1 -1 -1 -1
-1 -1 -1 -1 -1 -1 -1 42 80 108 57 97 164 271 536 749 947 1072 1155 1183 1205 1212 1322 1444 1580 1688 1784 1841 1865 1853 1818 1769 1720 1667 1615 1558 1495 1442 1409 1407 1405 1383 1332 1256 1179 1109 1073 1048 1023 1001 982 968 949 928 897 868 843 870 915 959 971 958 926 890 851 826 808 806 810 819 843 886 954 1045 1138 1224 1296 1355 1399 1434 1458 1468 1466 1452 1432 1398 1357 1303 1241 1188 1148 1141 1160 1176 1192 1197 1191 1172 1144 1115 1101 1127 1168 1207 1237 1250 1249 1235 1215 1199 1185 1173 1163 1156 1148 1147 1153 1165 1188 1220 1256 1294 1319 1317 1285 1224 1139 1022 883 729 596 492 438 422 407 392 376 355 316 255 201 189 195 220 236 230 192 147 111 77 81 156 255 358 438 474 446 347 173 -1 -1 -1 41 76 68 50 6 -1 -1 -1 -1 -1 -1 -1 -1 -1 -1 -1 -1 -1
-1 -1 -1 -1 -1 -1 45 187 276 292 293 283 314 358 346 530 644 765 861 947 965 1089 1245 1422 1572 1700 1788 1835 1836 1797 1735 1676 1625 1588 1555 1516 1473 1431 1403 1392 1395 1384 1348 1294 1229 1164 1110 1061 1016 984 968 958 941 919 893 861 833 829 884 944 989 1003 998 979 952 926 910 894 882 865 852 881 944 1029 1127 1218 1299 1358 1404 1432 1447 1448 1440 1423 1406 1385 1357 1319 1271 1220 1182 1155 1132 1143 1151 1161 1158 1148 1124 1099 1105 1136 1179 1220 1255 1277 1285 1282 1271 1263 1254 1250 1247 1244 1241 1236 1240 1250 1265 1287 1311 1331 1343 1332 1295 1232 1147 1040 909 782 668 589 549 515 488 459 426 385 323 241 142 89 106 141 172 169 132 78 33 21 70 159 267 365 442 474 444 335 167 -1 -1 -1 -1 -1 -1 -1 -1 -1 -1 -1 -1 -1 -1 -1 -1 -1 -1 -1 -1 -1
-1 -1 -1 -1 -1 -1 98 287 422 512 566 603 630 609 568 456 504 593 707 831 1018 1146 1307 1472 1619 1731 1804 1830 1804 1733 1643 1569 1529 1509 1488 1465 1438 1414 1397 1400 1402 1394 1366 1316 1253 1181 1104 1025 958 917 912 903 890 870 856 841 817 812 862 934 992 1029 1044 1046 1038 1023 1011 1001 983 960 944 947 995 1067 1150 1234 1302 1359 1397 1419 1424 1414 1395 1377 1362 1352 1338 1319 1290 1256 1220 1181 1149 1118 1121 1123 1126 1118 1106 1097 1119 1154 1193 1233 1266 1291 1307 1313 1312 1308 1307 1305 1307 1307 1305 1307 1307 1317 1328 1339 1353 1365 1365 1347 1305 1244 1161 1061 956 845 756 691 646 605 561 517 469 406 327 220 128 47 41 84 106 113 87 40 -1 25 84 173 273 370 445 476 447 349 176 -1 -1 -1 -1 -1 -1 -1 -1 -1 -1 -1 -1 -1 -1 -1 -1 -1 -1 -1 -1 -1
-1 -1 -1 -1 -1 -1 89 315 507 653 772 860 906 910 852 794 768 815 905 1039 1180 1319 1436 1565 1683 1772 1824 1825 1772 1673 1555 1481 1452 1443 1436 1424 1412 1407 1413 1418 1421 1411 1378 1322 1247 1159 1059 976 898 873 857 859 824 808 810 803 798 806 861 924 981 1027 1059 1079 1089 1092 1092 1090 1082 1069 1054 1058 1079 1132 1198 1260 1317 1359 1388 1399 1393 1365 1335 1307 1299 1292 1295 1293 1288 1271 1243 1209 1168 1133 1102 1100 1094 1097 1093 1112 1138 1170 1205 1237 1268 1295 1314 1324 1328 1329 1330 1334 1338 1341 1343 1346 1352 1358 1366 1376 1385 1390 1384 1359 1319 1255 1180 1090 991 902 819 756 703 652 602 548 483 404 301 203 100 87 73 41 54 54 49 9 -1 34 112 197 290 377 448 481 455 359 205 -1 -1 -1 -1 -1 -1 -1 -1 -1 -1 -1 -1 -1 -1 -1 -1 -1 -1 -1 -1 -1
-1 -1 -1 -1 -1 -1 39 287 515 718 879 1010 1095 1133 1141 1124 1125 1153 1215 1299 1394 1485 1575 1663 1749 1813 1842 1823 1751 1632 1521 1450 1422 1415 1414 1414 1422 1433 1445 1453 1448 1425 1378 1305 1213 1103 1013 930 930 915 893 843 826 796 777 779 794 828 863 910 955 999 1040 1075 1102 1119 1134 1146 1154 1156 1156 1157 1172 1202 1245 1289 1325 1351 1366 1370 1357 1316 1261 1229 1202 1207 1221 1241 1256 1259 1246 1222 1190 1152 1120 1092 1085 1087 1108 1128 1151 1180 1207 1235 1259 1283 1302 1313 1319 1321 1326 1333 1340 1346 1350 1355 1360 1367 1378 1389 1401 1406 1398 1372 1330 1272 1195 1111 1016 925 842 764 700 647 595 536 462 362 266 161 161 148 123 79 21 24 -1 -1 -1 55 137 224 311 394 459 488 463 374 222 54 -1 -1 -1 -1 -1 -1 -1 -1 -1 -1 -1 -1 -1 -1 -1 -1 -1 -1 -1 -1
-1 -1 -1 -1 -1 -1 -1 222 475 709 912 1070 1189 1268 1313 1343 1366 1398 1441 1497 1557 1618 1678 1739 1799 1843 1857 1828 1749 1649 1548 1483 1456 1446 1445 1451 1465 1482 1493 1493 1474 1429 1359 1265 1152 1054 965 980 989 986 949 900 848 816 791 812 837 857 876 893 919 955 996 1037 1073 1105 1136 1164 1190 1210 1222 1232 1240 1257 1279 1301 1317 1327 1330 1326 1315 1281 1213 1133 1096 1085 1117 1165 1203 1222 1228 1220 1200 1171 1139 1117 1103 1105 1117 1133 1150 1169 1193 1217 1240 1259 1274 1282 1284 1287 1293 1302 1313 1322 1327 1330 1331 1341 1354 1378 1398 1409 1406 1383 1342 1284 1209 1115 1016 911 806 712 637 584 535 477 395 313 209 227 223 213 172 105 51 0 5 -1 8 70 155 246 332 410 472 499 475 391 272 143 39 -1 -1 -1 -1 -1 -1 -1 -1 -1 -1 -1 -1 -1 -1 -1 -1 -1 -1 -1
-1 -1 -1 -1 -1 -1 -1 134 409 657 877 1059 1198 1301 1377 1433 1479 1520 1562 1606 1648 1690 1730 1773 1816 1848 1860 1838 1782 1702 1623 1565 1532 1520 1514 1516 1529 1541 1546 1531 1488 1415 1318 1199 1097 1001 1022 1038 1051 1031 987 925 875 833 852 872 892 895 888 880 886 907 941 978 1016 1057 1101 1148 1193 1229 1254 1269 1276 1282 1285 1288 1285 1279 1274 1271 1266 1244 1185 1089 998 965 1007 1073 1126 1168 1190 1199 1193 1176 1155 1135 1121 1114 1114 1118 1125 1139 1160 1186 1208 1225 1233 1234 1230 1229 1235 1251 1266 1276 1277 1270 1270 1276 1306 1344 1380 1402 1406 1388 1350 1291 1211 1108 985 849 719 597 517 470 426 372 316 240 278 284 289 251 182 118 52 63 47 22 20 80 164 255 346 423 483 512 494 431 341 258 192 131 80 23 -1 -1 -1 -1 -1 -1 -1 -1 -1 -1 -1 -1 -1 -1 -1 -1
-1 -1 -1 -1 -1 -1 -1 54 317 577 803 989 1133 1246 1337 1415 1478 1535 1586 1625 1657 1684 1711 1743 1780 1814 1838 1839 1815 1772 1719 1670 1632 1609 1599 1597 1598 1603 1591 1553 1478 1374 1246 1137 1035 1061 1081 1094 1075 1035 978 928 876 896 918 942 948 931 902 879 869 880 899 930 956 1003 1062 1121 1180 1227 1259 1274 1276 1271 1261 1245 1228 1211 1202 1203 1207 1199 1164 1096 1001 907 923 972 1039 1095 1136 1160 1169 1164 1150 1132 1114 1097 1083 1073 1076 1088 1115 1147 1171 1179 1180 1170 1158 1154 1166 1190 1208 1211 1198 1187 1170 1191 1235 1296 1351 1388 1399 1386 1349 1290 1200 1085 929 750 588 445 355 325 318 262 256 318 337 355 324 259 172 92 111 132 137 108 80 95 167 257 346 430 491 526 523 482 422 372 324 274 222 164 103 59 28 -1 -1 -1 -1 -1 -1 -1 -1 -1 -1 -1 -1 -1
-1 -1 -1 -1 -1 -1 -1 -1 238 482 700 875 1012 1120 1217 1304 1388 1462 1523 1562 1580 1586 1598 1625 1671 1727 1776 1817 1833 1827 1805 1771 1735 1703 1684 1676 1670 1655 1622 1550 1441 1301 1179 1069 1099 1122 1139 1115 1062 1001 951 912 936 964 992 1005 999 969 922 884 880 892 906 913 939 985 1047 1116 1171 1218 1246 1254 1244 1227 1205 1179 1152 1130 1119 1126 1136 1145 1141 1106 1031 946 867 891 946 1012 1067 1110 1131 1136 1127 1108 1081 1051 1019 1005 1003 1035 1076 1112 1127 1127 1111 1088 1071 1075 1102 1130 1140 1125 1102 1062 1060 1082 1166 1254 1325 1371 1391 1382 1346 1280 1190 1054 876 678 461 324 248 246 260 316 357 389 412 395 342 248 152 110 167 220 230 214 179 155 183 258 347 427 497 539 553 535 503 463 425 380 326 260 195 140 89 35 -1 -1 -1 -1 -1 -1 -1 -1 -1 -1 -1 -1
-1 -1 -1 -1 -1 -1 -1 -1 173 395 592 746 863 960 1049 1141 1233 1323 1394 1429 1425 1401 1390 1420 1490 1583 1680 1768 1834 1863 1868 1853 1823 1789 1763 1748 1732 1699 1631 1522 1369 1230 1105 1137 1169 1195 1174 1117 1039 971 943 974 1005 1043 1063 1065 1046 1005 949 898 897 916 938 956 973 1015 1073 1128 1180 1210 1222 1210 1189 1160 1128 1098 1068 1043 1040 1044 1063 1084 1104 1100 1059 983 904 835 863 923 996 1050 1085 1097 1090 1064 1027 977 942 918 953 1006 1055 1080 1085 1061 1025 991 983 1011 1051 1073 1061 1026 971 942 924 1010 1119 1224 1305 1359 1383 1377 1340 1277 1175 1047 874 655 472 324 325 351 385 419 452 461 450 411 336 231 141 171 239 298 321 314 286 255 241 278 351 435 501 554 578 582 565 534 494 447 387 317 247 182 113 37 -1 -1 -1 -1 -1 -1 -1 -1 -1 -1 -1 -1
-1 -1 -1 -1 -1 -1 -1 8 167 335 501 632 727 800 874 955 1049 1146 1222 1249 1215 1163 1129 1179 1289 1430 1591 1725 1821 1882 1908 1911 1891 1860 1832 1810 1782 1724 1625 1468 1308 1159 1178 1215 1255 1250 1204 1125 1048 1020 1028 1052 1090 1115 1124 1115 1084 1034 969 920 902 937 978 1012 1040 1073 1116 1160 1190 1203 1187 1152 1112 1077 1044 1012 984 969 962 973 988 1026 1063 1081 1064 1011 931 852 803 854 928 991 1035 1051 1044 1013 962 905 857 880 938 1000 1040 1054 1031 986 927 902 915 969 1010 1011 973 904 850 810 885 985 1105 1209 1290 1347 1377 1375 1341 1275 1185 1057 903 738 567 482 477 501 509 510 503 482 446 391 305 217 170 242 316 368 396 399 382 353 332 333 379 447 516 568 602 616 609 581 537 481 412 337 259 179 95 -1 -1 -1 -1 -1 -1 -1 -1 -1 -1 -1 -1 -1
-1 -1 -1 -1 -1 -1 -1 101 232 348 458 560 630 678 723 784 865 955 1030 1050 1023 949 962 1035 1169 1367 1541 1693 1809 1887 1934 1949 1941 1917 1891 1864 1820 1743 1604 1436 1256 1235 1267 1318 1331 1303 1241 1174 1126 1115 1124 1143 1160 1170 1168 1148 1109 1052 983 932 919 958 1017 1067 1103 1135 1165 1192 1204 1190 1148 1084 1028 989 960 935 919 907 908 913 943 983 1025 1050 1047 1012 947 863 787 803 863 933 981 1001 991 957 900 849 829 886 953 1007 1031 1019 970 897 847 833 887 947 974 950 879 788 722 782 888 1010 1116 1210 1287 1340 1370 1372 1343 1285 1200 1097 970 833 709 650 628 614 590 549 497 446 394 334 268 203 258 317 386 426 450 458 451 433 412 409 425 476 536 589 627 643 637 607 557 489 410 322 227 131 30 -1 -1 -1 -1 -1 -1 -1 -1 -1 -1 -1 -1 -1
-1 -1 -1 -1 -1 -1 35 201 330 421 488 545 587 606 623 650 716 784 848 897 889 952 1009 1095 1220 1370 1544 1685 1801 1892 1948 1975 1978 1963 1939 1906 1853 1758 1617 1431 1340 1338 1381 1407 1402 1360 1299 1252 1222 1211 1213 1214 1213 1207 1190 1162 1119 1055 994 952 967 1002 1058 1111 1154 1183 1207 1216 1209 1176 1109 1026 954 913 892 881 874 874 875 891 918 952 985 1007 1011 989 941 864 798 762 813 878 926 944 936 898 854 818 865 922 980 1014 1016 978 907 827 788 822 890 944 949 891 787 695 674 792 928 1038 1138 1218 1284 1335 1364 1368 1346 1298 1230 1141 1037 926 834 776 740 693 629 547 453 366 320 279 234 284 329 395 438 466 479 485 483 475 466 462 480 514 566 617 651 666 656 621 561 485 388 275 153 33 -1 -1 -1 -1 -1 -1 -1 -1 -1 -1 -1 -1 -1 -1
-1 -1 -1 -1 -1 -1 92 273 419 515 564 584 592 582 578 606 644 698 758 825 952 1050 1150 1244 1342 1457 1579 1706 1811 1895 1959 1996 2007 1999 1978 1943 1882 1787 1649 1523 1458 1463 1480 1489 1467 1419 1366 1328 1304 1289 1276 1261 1245 1223 1197 1164 1117 1061 1014 1020 1031 1062 1106 1151 1191 1220 1234 1232 1206 1156 1083 992 911 874 860 860 863 866 878 886 900 918 937 951 959 950 914 862 796 745 765 819 866 885 870 848 813 859 907 962 1000 1012 991 933 852 786 777 844 910 945 923 839 716 631 704 834 965 1073 1157 1228 1286 1328 1354 1361 1347 1312 1255 1182 1097 1008 926 870 813 741 647 540 424 332 281 266 317 357 412 449 473 481 482 482 480 480 482 495 518 555 600 645 676 686 670 625 557 464 343 200 48 -1 -1 -1 -1 -1 -1 -1 -1 -1 -1 -1 -1 -1 -1 -1
-1 -1 -1 -1 -1 -1 114 316 480 596 655 663 639 605 586 614 666 730 807 902 1027 1160 1267 1366 1465 1558 1647 1740 1831 1909 1969 2012 2030 2028 2011 1975 1914 1823 1720 1625 1583 1568 1570 1557 1523 1473 1425 1386 1358 1335 1312 1288 1259 1232 1200 1162 1120 1087 1088 1090 1105 1126 1153 1190 1222 1245 1250 1232 1193 1134 1056 975 906 867 872 885 891 894 891 886 879 877 883 891 900 899 878 836 786 740 724 768 808 818 813 795 841 888 946 984 1002 993 953 888 812 767 801 867 927 941 892 784 673 625 743 884 1004 1098 1172 1231 1281 1316 1339 1347 1340 1316 1275 1217 1150 1074 1001 933 864 772 674 564 461 388 360 374 404 445 470 486 487 479 467 458 457 456 473 500 540 583 629 671 698 702 677 623 539 419 268 91 -1 -1 -1 -1 -1 -1 -1 -1 -1 -1 -1 -1 -1 -1 -1 -1
-1 -1 -1 -1 -1 -1 88 325 513 654 737 760 731 680 641 635 702 776 863 959 1071 1194 1316 1429 1536 1631 1714 1788 1862 1930 1985 2025 2049 2053 2039 2004 1946 1871 1794 1730 1685 1661 1642 1611 1566 1511 1459 1415 1380 1349 1320 1294 1268 1240 1209 1178 1149 1142 1147 1157 1166 1179 1199 1224 1247 1261 1253 1221 1167 1097 1021 952 906 888 912 929 935 927 909 881 850 831 821 832 839 844 830 799 759 719 699 728 753 762 758 810 860 916 959 985 984 958 909 842 787 770 823 890 931 923 854 731 615 667 789 925 1029 1107 1168 1217 1258 1291 1312 1326 1327 1313 1285 1244 1193 1127 1056 984 901 813 716 621 542 493 477 478 494 505 509 503 487 466 445 435 430 436 454 497 548 602 652 694 717 713 677 608 500 355 170 -1 -1 -1 -1 -1 -1 -1 -1 -1 -1 -1 -1 -1 -1 -1 -1 -1
-1 -1 -1 -1 -1 -1 44 289 516 685 801 853 843 793 739 705 700 772 841 922 1019 1143 1287 1428 1553 1663 1754 1827 1894 1955 2004 2041 2064 2072 2059 2028 1980 1923 1869 1816 1769 1729 1691 1643 1583 1520 1457 1404 1364 1331 1306 1285 1266 1246 1223 1201 1186 1181 1187 1194 1202 1214 1230 1250 1266 1269 1247 1196 1125 1045 972 928 908 935 960 978 974 954 919 872 824 782 773 775 788 791 781 754 724 686 688 693 707 713 758 812 875 921 954 965 952 912 855 804 767 798 847 900 919 887 804 677 605 689 833 950 1032 1089 1135 1176 1216 1246 1276 1296 1302 1299 1286 1260 1220 1167 1103 1027 948 861 770 685 622 582 558 550 544 539 527 509 481 453 432 422 432 443 460 495 555 615 669 712 732 719 669 576 443 272 88 -1 -1 -1 -1 -1 -1 -1 -1 -1 -1 -1 -1 -1 -1 -1 -1 -1
-1 -1 -1 -1 -1 -1 -1 239 478 691 841 930 952 927 870 809 768 740 778 815 891 1030 1207 1379 1532 1661 1764 1850 1917 1974 2020 2055 2077 2084 2076 2051 2015 1973 1927 1879 1825 1773 1713 1644 1567 1484 1409 1352 1308 1281 1263 1259 1253 1245 1230 1215 1204 1199 1198 1202 1209 1223 1242 1263 1276 1272 1237 1174 1087 993 932 914 948 982 1011 1019 1004 968 917 857 795 752 730 738 747 748 735 716 693 692 679 682 688 714 759 818 868 909 930 932 908 862 805 761 779 820 868 894 884 831 733 641 610 732 860 952 1007 1039 1073 1111 1155 1199 1231 1251 1265 1271 1272 1261 1235 1193 1139 1069 991 905 815 732 671 625 593 569 555 543 530 507 477 443 423 431 449 472 493 520 566 630 687 728 742 718 650 536 379 204 44 -1 -1 3 38 36 -1 -1 -1 -1 -1 -1 -1 -1 -1 -1 -1 -1
-1 -1 -1 -1 -1 -1 -1 155 416 653 848 979 1045 1051 1014 950 877 819 755 745 791 932 1117 1316 1494 1640 1763 1854 1928 1985 2030 2062 2083 2091 2087 2070 2044 2009 1966 1915 1857 1788 1707 1611 1511 1406 1318 1263 1230 1205 1205 1214 1228 1230 1223 1213 1199 1188 1184 1185 1190 1213 1239 1263 1276 1270 1232 1158 1064 975 920 942 989 1031 1051 1047 1016 965 902 833 775 728 717 726 731 721 709 702 711 714 718 719 722 740 772 818 859 887 897 888 860 812 765 746 784 836 869 869 828 745 667 597 674 770 867 923 947 966 987 1045 1102 1144 1172 1194 1207 1227 1242 1248 1236 1207 1160 1098 1020 933 835 751 675 616 573 546 532 528 520 504 478 445 427 440 472 505 535 567 604 653 708 743 751 715 632 505 346 202 140 123 137 151 138 92 11 -1 -1 -1 -1 -1 -1 -1 -1 -1 -1 -1
-1 -1 -1 -1 -1 -1 -1 53 326 586 812 991 1104 1153 1150 1105 1033 951 878 817 808 888 1068 1267 1461 1629 1757 1859 1931 1988 2030 2059 2079 2089 2089 2079 2059 2029 1988 1933 1866 1780 1673 1553 1425 1312 1227 1191 1170 1156 1151 1172 1187 1200 1203 1195 1179 1163 1156 1153 1169 1192 1222 1252 1268 1262 1226 1156 1062 974 935 976 1030 1068 1077 1056 1007 943 870 806 752 741 741 740 745 738 734 741 752 771 782 782 784 789 805 829 854 867 860 841 809 768 734 747 790 836 853 824 747 656 578 634 708 791 840 856 864 870 940 1002 1053 1082 1098 1111 1136 1163 1199 1219 1224 1206 1168 1107 1033 936 841 735 642 568 519 497 495 501 506 500 479 451 431 448 489 534 577 615 654 695 733 763 765 724 633 510 395 317 275 272 268 245 191 99 -1 -1 -1 -1 -1 -1 -1 -1 -1 -1 -1 -1
-1 -1 -1 -1 -1 -1 -1 -1 222 502 754 962 1123 1221 1261 1251 1199 1128 1053 984 940 959 1076 1269 1458 1625 1764 1863 1938 1988 2024 2050 2065 2074 2076 2071 2057 2034 1997 1942 1864 1763 1640 1492 1361 1261 1233 1208 1192 1173 1153 1128 1144 1160 1172 1168 1154 1136 1126 1131 1144 1168 1201 1231 1252 1251 1221 1157 1064 977 972 1015 1067 1092 1082 1040 976 897 832 772 767 776 784 790 786 791 790 798 818 839 853 858 852 851 853 860 865 857 828 791 760 731 719 748 793 825 823 769 668 557 572 640 718 761 770 770 763 841 913 972 1000 1005 1002 1007 1038 1086 1141 1184 1203 1197 1166 1112 1032 943 831 716 601 513 462 452 459 473 492 497 483 454 431 447 496 555 607 658 702 740 772 791 787 745 667 569 494 439 406 380 345 282 185 61 -1 -1 -1 -1 -1 -1 -1 -1 -1 -1 -1 -1
-1 -1 -1 -1 -1 -1 -1 -1 125 407 679 920 1111 1251 1335 1369 1353 1301 1238 1178 1125 1122 1179 1325 1496 1652 1778 1877 1946 1989 2015 2030 2037 2043 2046 2046 2039 2026 1997 1944 1868 1766 1627 1486 1363 1320 1297 1277 1249 1212 1162 1120 1099 1120 1139 1141 1134 1120 1112 1112 1127 1151 1179 1206 1229 1234 1214 1154 1076 1011 1020 1065 1098 1100 1065 1001 921 845 787 785 799 826 849 855 860 856 859 871 891 913 929 930 925 914 907 898 886 859 817 761 722 704 715 748 786 805 786 717 602 513 547 624 676 685 684 668 750 828 895 927 927 905 878 890 926 1008 1091 1149 1178 1181 1161 1112 1042 949 841 715 591 498 448 425 430 453 477 494 485 455 434 446 495 562 632 691 743 784 811 826 818 782 720 650 590 539 491 437 362 260 131 -1 -1 -1 -1 -1 -1 -1 -1 -1 -1 -1 -1 -1
-1 -1 -1 -1 -1 -1 -1 -1 60 342 618 874 1089 1258 1379 1447 1471 1452 1406 1358 1327 1310 1345 1430 1563 1696 1809 1895 1950 1983 1994 1994 1992 1994 1997 2003 2006 2006 1987 1945 1877 1779 1665 1542 1455 1414 1388 1347 1295 1233 1166 1103 1082 1093 1107 1124 1126 1117 1109 1109 1120 1138 1157 1179 1201 1214 1201 1158 1092 1073 1091 1118 1126 1094 1027 945 861 795 794 820 856 890 921 940 940 938 936 949 968 988 998 997 985 970 953 933 907 872 819 766 718 700 713 742 770 778 749 672 561 481 509 569 590 597 583 664 748 823 859 859 828 777 756 758 855 963 1052 1115 1150 1162 1151 1115 1052 964 858 740 619 527 461 425 412 436 468 490 492 472 453 462 503 571 649 721 777 820 846 860 851 822 774 717 657 598 526 438 326 188 29 -1 -1 -1 -1 -1 -1 -1 -1 -1 -1 -1 -1 -1
-1 -1 -1 -1 -1 -1 -1 -1 35 323 596 842 1070 1256 1399 1498 1551 1568 1549 1520 1496 1498 1517 1566 1648 1753 1843 1911 1953 1967 1958 1939 1925 1921 1928 1944 1962 1975 1970 1941 1886 1813 1722 1631 1564 1516 1469 1405 1327 1245 1163 1117 1091 1079 1099 1119 1132 1128 1123 1124 1126 1129 1137 1149 1173 1196 1200 1171 1147 1148 1162 1173 1152 1086 989 887 813 785 826 878 926 971 1006 1027 1033 1025 1025 1032 1046 1057 1059 1047 1029 1006 978 951 920 880 833 779 735 708 711 729 747 748 716 647 543 460 464 485 507 503 583 667 748 793 794 761 700 655 625 715 832 939 1025 1082 1119 1138 1138 1115 1062 988 890 772 660 559 479 419 404 420 454 487 505 506 502 501 530 591 667 743 808 852 880 888 881 852 807 751 684 605 511 388 240 74 -1 -1 -1 -1 -1 -1 -1 -1 -1 -1 -1 -1 -1 -1
-1 -1 -1 -1 -1 -1 -1 -1 57 322 593 839 1053 1249 1405 1520 1602 1645 1659 1649 1641 1644 1666 1698 1751 1817 1883 1931 1952 1941 1906 1865 1837 1831 1846 1876 1911 1937 1944 1929 1895 1845 1781 1716 1657 1604 1540 1457 1363 1270 1205 1161 1124 1092 1097 1124 1146 1153 1156 1152 1145 1134 1124 1132 1155 1188 1211 1213 1216 1226 1237 1229 1182 1089 962 851 793 820 876 948 1009 1055 1096 1119 1125 1119 1112 1112 1112 1109 1096 1075 1044 1011 976 942 910 876 835 790 747 719 706 710 717 714 690 632 552 472 416 422 428 494 574 666 720 731 703 637 580 535 616 718 833 931 999 1048 1081 1106 1118 1110 1074 1010 922 811 692 584 480 424 400 409 438 479 521 547 559 565 581 624 693 767 833 880 905 913 896 861 805 736 659 564 443 294 116 -1 -1 -1 -1 -1 -1 -1 -1 -1 -1 -1 -1 -1 -1 -1
-1 -1 -1 -1 -1 -1 -1 -1 82 321 579 822 1040 1227 1394 1528 1624 1694 1732 1748 1751 1761 1778 1808 1841 1883 1922 1951 1950 1916 1848 1781 1743 1736 1764 1809 1858 1892 1910 1910 1894 1865 1825 1778 1730 1676 1601 1511 1413 1336 1282 1231 1175 1125 1106 1136 1174 1195 1198 1194 1176 1148 1125 1123 1151 1191 1233 1265 1283 1302 1308 1288 1222 1105 963 845 816 881 960 1030 1093 1145 1184 1207 1211 1206 1195 1180 1165 1140 1106 1066 1024 980 938 902 875 847 816 782 748 718 698 687 686 684 668 629 564 482 412 379 418 491 576 635 659 640 583 527 475 544 639 750 844 914 960 995 1028 1062 1088 1098 1081 1034 958 853 730 597 498 434 413 411 430 473 529 582 616 636 654 682 735 799 860 904 926 923 894 833 755 665 572 461 329 161 4 -1 -1 -1 31 50 15 -1 -1 -1 -1 -1 -1 -1 -1 -1
-1 -1 -1 -1 -1 -1 -1 -1 73 317 554 791 1009 1201 1368 1512 1630 1713 1774 1809 1831 1843 1863 1884 1911 1935 1958 1967 1949 1897 1822 1727 1665 1664 1700 1755 1802 1839 1864 1876 1879 1868 1849 1820 1783 1729 1658 1573 1490 1423 1365 1305 1231 1162 1127 1157 1210 1244 1255 1246 1223 1179 1140 1128 1152 1205 1261 1310 1349 1372 1379 1349 1271 1139 981 860 877 964 1056 1131 1188 1232 1269 1290 1293 1281 1262 1232 1193 1145 1086 1022 966 914 868 837 811 793 773 754 731 709 688 669 659 655 648 622 570 489 411 374 416 488 552 584 574 529 480 433 496 581 687 775 842 880 898 920 958 1008 1053 1081 1082 1052 989 894 772 642 537 477 454 449 454 485 542 611 668 705 728 758 795 844 891 924 934 916 862 770 649 529 415 306 171 42 -1 -1 24 109 153 148 84 -1 -1 -1 -1 -1 -1 -1 -1 -1
-1 -1 -1 -1 -1 -1 -1 -1 80 297 541 765 972 1168 1332 1487 1615 1716 1788 1843 1879 1903 1921 1940 1957 1971 1979 1975 1948 1895 1814 1729 1655 1626 1659 1702 1747 1776 1807 1831 1848 1853 1849 1836 1812 1771 1712 1642 1573 1509 1441 1364 1277 1196 1153 1188 1254 1302 1318 1313 1280 1230 1175 1145 1160 1215 1289 1356 1406 1440 1447 1415 1327 1181 1002 892 934 1047 1154 1232 1286 1325 1351 1369 1365 1343 1308 1261 1200 1126 1041 953 884 831 791 758 741 727 720 710 698 689 676 660 641 630 624 607 560 486 398 375 402 460 501 505 475 435 395 453 533 635 718 779 809 811 814 829 885 955 1016 1061 1077 1062 1015 936 827 706 612 557 527 517 521 536 582 646 716 767 804 833 867 897 925 936 923 878 794 667 506 331 212 104 38 -1 10 86 186 250 271 235 147 20 -1 -1 -1 -1 -1 -1 -1 -1
-1 -1 -1 -1 -1 -1 -1 -1 44 293 528 751 961 1136 1314 1457 1591 1701 1790 1854 1904 1937 1960 1974 1984 1989 1987 1974 1945 1896 1828 1752 1690 1655 1629 1657 1682 1716 1745 1779 1806 1821 1828 1827 1821 1799 1760 1708 1648 1582 1499 1407 1305 1220 1175 1223 1298 1360 1389 1385 1358 1305 1241 1181 1172 1228 1312 1397 1463 1502 1514 1482 1386 1220 1039 929 988 1125 1246 1327 1380 1414 1435 1435 1424 1390 1338 1268 1185 1085 980 878 807 764 731 706 686 682 671 664 662 661 659 650 636 617 599 586 543 462 407 358 374 402 425 412 386 359 414 487 582 665 724 751 742 726 712 764 839 916 986 1038 1064 1063 1034 975 888 789 712 661 628 611 611 627 651 704 767 828 871 906 930 951 952 931 877 796 676 522 335 155 -1 -1 -1 56 151 260 337 381 373 310 202 65 -1 -1 -1 -1 -1 -1 -1 -1
-1 -1 -1 -1 -1 -1 -1 -1 16 253 501 734 938 1138 1295 1448 1569 1683 1778 1856 1912 1955 1979 1992 1994 1988 1976 1961 1935 1896 1845 1788 1736 1691 1654 1619 1634 1654 1691 1730 1757 1773 1785 1799 1809 1809 1793 1759 1707 1637 1542 1427 1315 1214 1199 1242 1327 1404 1453 1463 1444 1402 1331 1251 1208 1239 1334 1434 1514 1562 1580 1547 1444 1271 1078 990 1065 1202 1332 1420 1468 1497 1506 1497 1467 1419 1346 1257 1147 1029 911 817 758 734 717 698 685 663 651 643 638 640 639 636 632 623 608 570 526 483 417 368 326 338 334 327 311 363 440 532 609 668 694 681 655 621 666 734 812 891 958 1010 1042 1054 1042 1006 947 878 820 772 740 722 722 725 749 786 836 888 935 965 986 987 964 900 799 657 498 335 189 33 10 -1 98 212 335 420 479 489 455 369 245 91 -1 -1 -1 -1 -1 -1 -1 -1
-1 -1 -1 -1 -1 -1 -1 -1 -1 224 465 708 933 1123 1299 1438 1566 1671 1768 1849 1914 1959 1985 1993 1985 1965 1946 1929 1916 1892 1856 1814 1770 1727 1678 1637 1598 1614 1646 1683 1703 1719 1730 1751 1778 1798 1805 1791 1752 1681 1573 1439 1299 1225 1201 1246 1329 1421 1493 1530 1528 1499 1442 1363 1285 1282 1362 1463 1555 1617 1641 1613 1511 1343 1168 1103 1169 1297 1418 1504 1553 1569 1567 1542 1495 1426 1335 1217 1089 960 854 779 756 745 734 719 700 680 661 649 638 629 626 628 629 630 618 593 555 506 450 380 326 280 267 257 299 372 466 550 608 634 622 590 547 584 646 723 797 866 925 973 1010 1028 1031 1017 988 953 914 881 850 836 830 837 847 878 914 957 991 1018 1026 1009 953 854 697 514 321 189 120 139 144 204 292 410 504 565 589 578 518 413 269 106 -1 -1 -1 -1 -1 -1 -1 -1
-1 -1 -1 -1 -1 -1 -1 -1 -1 184 454 686 914 1117 1288 1441 1565 1676 1764 1845 1911 1957 1983 1986 1964 1929 1894 1883 1882 1874 1856 1826 1790 1749 1704 1657 1619 1589 1612 1632 1650 1655 1665 1691 1732 1772 1800 1806 1783 1718 1604 1452 1317 1228 1202 1232 1310 1407 1501 1568 1598 1591 1553 1488 1414 1363 1392 1489 1586 1662 1698 1678 1584 1432 1288 1257 1310 1409 1511 1587 1624 1630 1607 1564 1498 1407 1292 1156 1015 898 812 793 785 775 756 732 710 690 676 662 650 637 628 625 629 632 628 610 577 532 472 409 340 280 232 231 288 370 460 531 566 558 525 479 510 579 652 721 783 838 888 930 961 978 988 994 994 990 983 967 954 938 934 933 947 968 994 1023 1050 1062 1053 1014 933 799 638 441 304 253 282 323 372 438 511 589 651 683 682 645 567 443 290 108 -1 -1 -1 -1 -1 -1 -1 -1
-1 -1 -1 -1 -1 -1 -1 -1 -1 170 432 683 900 1105 1284 1436 1569 1677 1770 1844 1906 1954 1979 1979 1950 1900 1847 1831 1833 1842 1839 1824 1800 1765 1725 1683 1640 1610 1580 1592 1599 1606 1602 1636 1683 1737 1782 1810 1803 1750 1646 1502 1364 1267 1225 1223 1276 1369 1477 1571 1637 1663 1648 1608 1548 1489 1465 1514 1613 1699 1747 1738 1658 1531 1425 1404 1458 1535 1608 1663 1684 1670 1627 1557 1465 1352 1220 1073 947 850 836 827 823 799 764 726 698 680 671 665 658 647 638 634 633 633 626 608 578 535 484 421 355 286 238 241 272 350 418 472 481 458 416 442 519 591 657 713 764 809 848 877 894 898 906 922 947 980 1006 1026 1031 1029 1022 1021 1034 1050 1069 1088 1101 1101 1073 1014 912 794 631 538 480 476 503 547 595 642 694 739 770 775 752 695 599 469 303 137 -1 -1 -1 -1 -1 -1 -1 -1
-1 -1 -1 -1 -1 -1 -1 -1 -1 197 449 692 920 1113 1284 1440 1567 1679 1770 1846 1904 1948 1973 1973 1947 1897 1841 1787 1786 1796 1807 1806 1793 1770 1736 1701 1665 1623 1598 1575 1577 1586 1607 1607 1653 1705 1760 1799 1811 1780 1696 1571 1448 1358 1287 1250 1255 1325 1427 1542 1636 1697 1719 1706 1670 1620 1582 1584 1644 1730 1788 1790 1729 1633 1557 1552 1594 1652 1703 1731 1728 1689 1614 1514 1394 1262 1121 996 893 884 878 877 852 810 759 711 675 659 655 656 659 656 651 644 638 628 614 590 559 520 473 418 353 296 265 278 305 317 366 385 388 361 383 465 536 597 647 696 741 777 801 812 803 789 782 804 852 920 995 1047 1081 1095 1098 1099 1106 1120 1133 1142 1147 1133 1093 1020 935 817 748 698 691 699 720 749 780 811 835 857 860 846 803 728 623 486 332 168 0 -1 -1 -1 -1 -1 -1 -1
-1 -1 -1 -1 -1 -1 -1 -1 78 296 515 748 963 1152 1313 1449 1577 1684 1773 1844 1901 1943 1967 1970 1949 1910 1852 1796 1748 1751 1763 1770 1770 1758 1738 1710 1678 1650 1624 1608 1619 1632 1641 1641 1626 1673 1724 1777 1808 1803 1749 1656 1564 1481 1403 1330 1285 1292 1374 1483 1598 1693 1755 1778 1769 1737 1702 1690 1713 1766 1823 1837 1798 1733 1691 1683 1712 1753 1781 1784 1749 1675 1562 1428 1285 1142 1035 937 941 941 942 913 867 808 749 702 671 648 639 645 656 662 661 651 636 614 585 556 524 488 449 401 352 314 321 341 356 365 345 347 344 359 422 484 538 578 625 671 712 735 741 727 699 659 641 669 743 853 959 1046 1102 1138 1155 1163 1172 1177 1187 1190 1185 1162 1112 1048 965 914 876 857 859 871 886 905 920 933 943 940 927 892 834 746 632 500 350 189 18 -1 -1 -1 -1 -1 -1 -1
-1 -1 -1 -1 -1 -1 -1 -1 206 421 635 833 1032 1207 1355 1484 1595 1694 1775 1842 1894 1933 1957 1964 1952 1921 1875 1816 1760 1721 1722 1728 1732 1731 1721 1706 1688 1670 1657 1662 1672 1689 1694 1676 1646 1631 1685 1751 1801 1820 1801 1748 1684 1616 1538 1454 1374 1327 1333 1424 1538 1660 1758 1820 1842 1834 1810 1794 1799 1829 1863 1882 1867 1835 1805 1798 1816 1836 1838 1806 1734 1616 1469 1298 1150 1039 971 1003 1010 1020 989 935 866 799 749 708 679 654 642 642 658 670 668 652 621 581 540 505 472 444 418 389 363 368 385 413 435 434 425 411 411 428 456 486 511 554 602 646 673 681 667 637 593 545 522 562 661 791 920 1027 1107 1158 1192 1211 1220 1229 1230 1229 1215 1183 1133 1068 1022 993 976 967 967 978 992 1003 1012 1014 1011 998 969 920 845 746 625 487 338 170 -1 -1 -1 -1 -1 -1 -1 -1
-1 -1 -1 -1 -1 -1 -1 95 323 549 749 939 1113 1270 1402 1518 1621 1704 1775 1832 1879 1915 1939 1950 1947 1928 1891 1841 1784 1738 1703 1693 1697 1696 1693 1691 1687 1682 1688 1700 1718 1732 1733 1706 1659 1618 1659 1730 1794 1835 1845 1827 1790 1739 1674 1591 1503 1423 1378 1388 1493 1619 1742 1834 1887 1905 1898 1886 1885 1901 1922 1936 1935 1920 1903 1898 1901 1898 1863 1785 1662 1507 1324 1172 1036 1004 1054 1083 1103 1075 1016 933 850 788 745 713 683 661 645 656 670 676 668 640 592 531 483 444 417 399 392 389 400 423 455 488 509 519 512 500 487 475 465 460 487 532 581 614 626 615 587 552 506 467 467 513 616 747 883 1003 1097 1169 1213 1243 1259 1265 1269 1259 1237 1197 1141 1088 1047 1024 1013 1007 1007 1016 1029 1041 1050 1052 1046 1026 990 932 845 736 603 445 272 91 -1 -1 -1 -1 -1 -1 -1 -1
-1 -1 -1 -1 -1 -1 -1 190 426 648 853 1029 1188 1326 1447 1549 1636 1707 1766 1814 1854 1887 1911 1926 1929 1919 1896 1861 1817 1769 1726 1703 1681 1671 1667 1673 1678 1689 1706 1728 1750 1764 1755 1722 1661 1628 1637 1722 1794 1845 1876 1885 1871 1840 1790 1722 1642 1557 1485 1454 1486 1598 1723 1836 1916 1955 1968 1966 1965 1973 1987 1998 1998 1993 1987 1979 1965 1927 1846 1700 1520 1331 1183 1075 1094 1127 1163 1189 1167 1106 1013 907 820 758 721 699 678 658 663 673 680 676 655 612 547 479 425 398 374 370 372 395 433 474 519 555 579 586 576 551 516 474 441 430 465 515 555 577 570 547 517 486 456 446 461 520 608 731 861 984 1089 1169 1227 1262 1286 1296 1293 1281 1250 1202 1144 1081 1022 989 971 968 966 974 990 1012 1032 1043 1043 1028 992 931 840 716 557 365 155 -1 -1 -1 -1 -1 -1 -1 -1 -1
-1 -1 -1 -1 -1 -1 22 260 498 723 922 1099 1244 1373 1477 1566 1635 1690 1734 1772 1811 1842 1869 1887 1897 1894 1886 1868 1841 1805 1768 1734 1703 1681 1665 1660 1672 1689 1718 1747 1772 1783 1770 1724 1670 1619 1658 1730 1799 1854 1893 1918 1925 1913 1883 1833 1769 1697 1626 1576 1571 1617 1729 1843 1936 1994 2022 2033 2038 2042 2053 2061 2062 2061 2054 2040 2000 1925 1781 1585 1331 1179 1113 1182 1231 1275 1290 1265 1205 1110 983 868 770 705 687 679 669 678 681 681 674 658 625 571 508 443 411 386 370 356 371 410 463 522 572 611 632 632 610 566 507 446 397 406 445 491 524 530 519 489 466 450 454 468 496 554 644 748 863 980 1085 1171 1233 1279 1305 1317 1314 1293 1255 1203 1138 1057 969 892 868 849 843 840 868 912 956 989 1004 1004 976 916 820 679 494 270 33 -1 -1 -1 -1 -1 -1 -1 -1 -1
-1 -1 -1 -1 -1 -1 36 289 538 759 965 1137 1283 1395 1487 1554 1602 1638 1671 1713 1753 1790 1815 1833 1840 1850 1855 1855 1847 1829 1805 1772 1741 1708 1685 1671 1668 1691 1725 1762 1791 1801 1784 1739 1662 1633 1678 1746 1807 1858 1898 1926 1946 1951 1942 1916 1877 1823 1765 1713 1695 1721 1767 1873 1961 2028 2069 2089 2099 2108 2113 2122 2126 2121 2111 2078 2010 1885 1717 1477 1304 1199 1272 1338 1393 1405 1375 1311 1214 1083 956 826 722 683 674 681 697 701 692 668 641 614 577 534 482 475 460 428 387 365 384 434 500 563 618 654 671 660 620 557 483 407 364 376 420 461 482 488 472 452 439 452 476 509 554 616 698 788 890 994 1091 1176 1243 1292 1323 1335 1327 1301 1255 1199 1126 1040 930 827 740 706 642 634 672 752 827 891 936 956 943 890 793 646 451 227 -1 -1 -1 -1 -1 -1 -1 -1 -1 -1
-1 -1 -1 -1 -1 -1 4 263 520 763 966 1148 1287 1391 1461 1504 1530 1553 1597 1645 1695 1730 1751 1755 1769 1782 1801 1816 1828 1832 1826 1809 1780 1748 1718 1693 1682 1695 1733 1772 1806 1819 1804 1758 1699 1655 1696 1748 1804 1847 1882 1911 1932 1948 1960 1964 1951 1923 1882 1846 1827 1828 1864 1910 2000 2066 2113 2141 2156 2164 2175 2182 2184 2176 2151 2096 1992 1850 1664 1560 1457 1445 1475 1517 1528 1495 1428 1326 1201 1077 938 804 740 713 722 737 741 728 692 638 583 558 535 509 534 545 535 490 423 395 412 471 539 608 658 690 696 669 614 537 452 378 340 357 393 423 442 447 443 437 441 460 499 550 601 676 750 838 921 1017 1108 1189 1256 1305 1336 1346 1336 1302 1255 1189 1118 1029 939 841 739 593 489 394 467 547 662 760 838 884 891 855 771 645 473 275 62 -1 -1 -1 -1 -1 -1 -1 -1 -1
-1 -1 -1 -1 -1 -1 -1 185 457 707 935 1114 1250 1340 1388 1411 1422 1464 1516 1578 1629 1658 1658 1666 1665 1688 1718 1755 1786 1815 1830 1829 1812 1789 1760 1732 1716 1718 1743 1787 1821 1841 1833 1802 1758 1719 1686 1736 1773 1811 1839 1863 1883 1908 1940 1973 1995 1993 1983 1958 1942 1943 1952 1993 2048 2114 2159 2190 2210 2221 2232 2238 2234 2219 2179 2102 1982 1835 1769 1709 1685 1671 1668 1664 1625 1559 1461 1343 1224 1092 955 868 812 802 803 811 799 759 700 628 568 532 530 574 609 630 612 551 473 443 466 518 587 650 698 719 709 667 593 506 420 351 320 334 363 383 404 418 436 446 456 475 510 561 632 702 791 868 955 1035 1123 1204 1267 1318 1346 1355 1340 1303 1245 1178 1101 1034 966 897 793 653 476 395 279 364 461 593 700 783 821 813 757 656 529 370 191 25 -1 -1 -1 -1 -1 -1 -1 -1
-1 -1 -1 -1 -1 -1 -1 50 335 607 838 1026 1152 1229 1267 1277 1318 1367 1444 1506 1544 1548 1545 1526 1535 1561 1615 1672 1733 1780 1811 1825 1827 1819 1801 1777 1765 1763 1777 1807 1844 1866 1869 1852 1822 1777 1742 1699 1731 1748 1770 1787 1814 1847 1903 1963 2011 2043 2053 2054 2042 2041 2050 2070 2114 2163 2206 2237 2258 2273 2283 2285 2277 2249 2200 2111 2007 1932 1891 1879 1860 1836 1808 1760 1694 1605 1502 1390 1272 1152 1048 974 932 907 902 892 860 806 737 675 627 605 620 657 695 707 679 610 536 509 535 585 642 697 734 742 713 651 562 467 381 325 300 309 329 356 379 415 440 458 469 479 504 551 624 713 795 888 968 1059 1136 1213 1280 1324 1355 1361 1342 1298 1237 1156 1078 1016 970 926 857 748 626 482 349 194 279 386 530 647 725 751 728 666 572 453 312 169 32 -1 -1 -1 -1 -1 -1 -1
-1 -1 -1 -1 -1 -1 -1 -1 155 432 675 851 978 1065 1100 1154 1210 1303 1372 1414 1419 1402 1358 1350 1352 1418 1503 1595 1673 1729 1762 1793 1817 1833 1833 1824 1818 1819 1829 1847 1874 1897 1907 1901 1878 1845 1792 1745 1703 1706 1717 1734 1761 1808 1874 1946 2016 2068 2104 2118 2124 2122 2133 2151 2176 2216 2253 2280 2303 2318 2327 2325 2311 2278 2218 2150 2083 2039 2018 2006 1985 1947 1895 1827 1747 1653 1558 1454 1346 1241 1159 1099 1054 1021 995 970 928 868 809 758 726 711 729 755 775 772 734 668 604 593 619 662 705 745 768 758 710 627 526 423 347 302 287 294 312 340 381 415 441 452 452 454 469 520 600 693 796 888 987 1070 1154 1224 1285 1334 1361 1365 1343 1295 1223 1137 1038 955 918 895 867 811 726 612 443 274 104 198 333 488 598 655 666 637 580 496 388 268 135 -1 -1 -1 -1 -1 -1 -1
-1 -1 -1 -1 -1 -1 -1 -1 -1 202 423 600 745 857 965 1035 1149 1239 1290 1290 1248 1172 1121 1087 1159 1268 1403 1520 1602 1653 1695 1736 1788 1830 1852 1860 1864 1869 1879 1892 1910 1928 1942 1943 1930 1901 1862 1814 1777 1758 1761 1766 1776 1814 1868 1941 2015 2080 2129 2163 2179 2190 2199 2217 2239 2262 2294 2322 2342 2354 2362 2358 2341 2303 2259 2210 2164 2138 2122 2101 2069 2020 1955 1879 1792 1705 1614 1522 1424 1331 1262 1207 1159 1117 1077 1037 990 937 889 848 820 816 819 836 843 827 783 719 683 680 707 739 770 793 797 770 705 608 494 399 328 297 291 297 320 349 380 406 419 415 403 389 411 483 575 676 780 891 988 1083 1160 1233 1292 1338 1365 1366 1342 1291 1220 1127 1017 900 818 806 799 788 745 665 534 343 150 22 148 312 436 518 558 563 537 485 412 315 191 42 -1 -1 -1 -1 -1 -1
-1 -1 -1 -1 -1 -1 -1 -1 -1 -1 191 375 544 707 848 1001 1100 1161 1165 1121 1017 898 796 824 936 1124 1298 1430 1510 1561 1601 1677 1758 1820 1862 1884 1895 1906 1916 1927 1940 1955 1968 1974 1970 1954 1928 1896 1867 1849 1841 1844 1851 1863 1904 1959 2024 2090 2146 2187 2218 2236 2253 2269 2288 2308 2328 2354 2373 2385 2389 2384 2366 2339 2306 2273 2241 2218 2197 2170 2126 2068 1999 1916 1833 1748 1664 1576 1486 1405 1335 1278 1225 1175 1128 1083 1036 992 951 918 902 892 896 896 894 871 827 783 760 765 785 809 827 834 823 782 706 607 498 401 344 322 313 320 334 353 369 379 372 357 326 312 357 451 563 670 773 878 987 1079 1166 1235 1296 1338 1364 1364 1342 1297 1232 1144 1034 908 778 683 689 681 675 631 544 400 197 -1 22 127 251 340 401 434 440 422 378 304 199 59 -1 -1 -1 -1 -1 -1
-1 -1 -1 -1 -1 -1 -1 -1 -1 -1 156 346 514 675 839 959 1031 1040 1001 904 757 588 500 556 748 961 1167 1304 1392 1451 1541 1647 1740 1814 1862 1891 1908 1918 1928 1939 1951 1965 1980 1991 1996 1991 1979 1961 1943 1926 1924 1925 1932 1942 1964 2000 2054 2109 2160 2206 2238 2266 2285 2305 2321 2341 2357 2375 2393 2404 2407 2401 2388 2368 2347 2322 2297 2275 2249 2213 2163 2099 2024 1942 1856 1774 1687 1598 1509 1428 1356 1292 1233 1180 1131 1088 1048 1011 982 962 948 944 941 939 927 905 871 841 827 832 847 862 870 865 844 796 723 629 531 449 394 364 350 346 344 343 341 332 320 289 261 264 320 426 547 667 775 878 976 1078 1159 1234 1290 1334 1358 1361 1342 1303 1246 1171 1076 956 818 694 566 548 525 508 473 387 239 80 -1 -1 45 133 203 256 293 308 293 246 161 35 -1 -1 -1 -1 -1 -1
-1 -1 -1 -1 -1 -1 -1 -1 -1 103 253 418 571 711 821 895 914 881 798 676 501 337 288 404 596 827 1010 1156 1274 1396 1530 1647 1743 1811 1857 1882 1896 1902 1910 1921 1936 1953 1970 1987 2000 2006 2006 2001 1994 1988 1986 1992 1999 2010 2025 2052 2091 2134 2177 2213 2246 2274 2297 2318 2336 2354 2370 2385 2398 2407 2409 2405 2396 2383 2367 2349 2330 2307 2278 2237 2182 2112 2032 1947 1857 1761 1662 1562 1465 1375 1297 1227 1167 1115 1071 1035 1003 980 964 958 958 959 958 952 941 924 902 884 875 876 885 892 893 883 856 811 746 666 582 509 453 415 390 368 346 322 301 288 269 245 230 249 305 404 530 656 776 883 983 1071 1157 1228 1285 1324 1347 1350 1336 1303 1256 1193 1114 1013 893 750 612 452 366 350 321 289 236 119 -1 -1 -1 -1 -1 53 110 152 172 154 92 -1 -1 -1 -1 -1 -1 -1
-1 -1 -1 -1 -1 -1 -1 -1 121 248 368 488 605 697 757 777 751 684 590 451 318 191 241 370 544 731 915 1082 1253 1409 1545 1663 1746 1803 1837 1853 1856 1856 1860 1872 1891 1912 1935 1958 1977 1993 2003 2010 2015 2019 2024 2030 2039 2050 2066 2089 2118 2153 2185 2216 2242 2266 2288 2308 2327 2345 2361 2374 2385 2392 2394 2391 2386 2376 2364 2351 2336 2316 2285 2241 2182 2110 2026 1928 1820 1701 1574 1442 1320 1216 1132 1064 1007 964 932 906 892 883 885 904 923 934 938 938 932 922 910 900 895 896 897 899 894 883 859 819 766 699 630 565 508 461 420 383 343 302 268 250 237 223 226 253 315 407 520 649 771 886 984 1075 1150 1219 1271 1308 1328 1333 1321 1295 1253 1198 1129 1047 947 827 681 534 389 215 127 134 133 109 16 -1 -1 -1 -1 -1 -1 -1 23 35 4 -1 -1 -1 -1 -1 -1 -1
-1 -1 -1 -1 -1 -1 -1 59 198 315 417 498 563 605 616 587 530 463 368 288 175 240 305 417 574 752 943 1130 1296 1450 1578 1673 1739 1775 1793 1795 1788 1776 1773 1791 1818 1849 1880 1905 1931 1949 1969 1987 2004 2015 2023 2031 2041 2057 2074 2098 2126 2154 2180 2201 2219 2235 2255 2274 2295 2314 2330 2342 2350 2355 2359 2357 2356 2348 2338 2331 2321 2304 2275 2230 2170 2095 2001 1886 1749 1596 1425 1235 1062 933 845 792 741 709 694 699 703 713 755 803 841 867 884 891 895 894 889 883 882 882 881 878 875 866 848 817 772 721 663 601 541 484 433 384 337 291 256 232 222 227 242 279 346 434 542 656 774 881 983 1067 1145 1203 1250 1283 1303 1308 1297 1272 1232 1177 1111 1038 955 857 744 619 462 272 43 -1 -1 6 0 -1 -1 -1 -1 -1 -1 -1 -1 -1 -1 -1 -1 -1 -1 -1 -1 -1
-1 -1 -1 -1 -1 -1 -1 59 195 299 373 419 433 428 393 333 258 197 193 137 249 326 425 534 673 847 1034 1212 1370 1500 1599 1671 1709 1721 1715 1705 1679 1658 1656 1688 1730 1773 1806 1837 1860 1886 1905 1935 1958 1973 1983 1991 2006 2026 2050 2079 2108 2134 2154 2164 2171 2182 2195 2219 2241 2261 2277 2286 2294 2302 2304 2309 2308 2302 2294 2292 2287 2274 2249 2208 2150 2072 1969 1841 1678 1488 1267 1024 777 578 507 439 374 351 380 410 437 499 575 648 710 759 796 821 831 840 840 835 834 836 837 836 836 834 822 800 765 721 667 608 542 480 421 366 317 281 254 236 232 242 274 321 390 481 578 681 785 886 974 1057 1127 1181 1220 1251 1270 1273 1263 1239 1195 1131 1057 978 896 812 728 636 520 347 130 -1 -1 -1 -1 -1 -1 -1 -1 -1 -1 -1 -1 -1 -1 -1 -1 -1 -1 -1 -1 -1
-1 -1 -1 -1 -1 -1 -1 6 123 206 253 262 233 173 124 65 -1 21 77 229 338 453 558 678 818 974 1138 1296 1432 1531 1601 1638 1647 1629 1604 1566 1530 1502 1527 1582 1643 1690 1722 1745 1772 1791 1826 1854 1881 1893 1903 1917 1939 1967 2007 2043 2072 2092 2101 2103 2099 2105 2125 2144 2170 2190 2205 2210 2223 2228 2238 2243 2244 2235 2234 2234 2234 2226 2208 2177 2123 2049 1951 1817 1653 1447 1208 950 676 431 275 173 71 17 60 95 159 245 345 446 542 626 689 727 753 764 762 761 758 763 765 776 783 786 783 767 740 698 644 578 509 437 371 317 275 252 244 252 260 276 315 374 443 530 621 712 806 893 972 1040 1099 1142 1177 1204 1224 1232 1224 1202 1154 1081 986 881 783 689 617 558 494 385 204 -1 -1 -1 -1 -1 -1 -1 -1 -1 -1 -1 -1 -1 -1 -1 -1 -1 -1 -1 -1 -1
