-1 -1 -1 -1 -1 -1 82 253 394 497 567 624 680 746 823 899 968 1022 1054 1059 1034 965 861 752 709 783 898 986 1041 1072 1093 1110 1130 1150 1157 1147 1117 1067 997 906 800 674 557 455 409 397 411 448 474 485 474 445 393 328 261 212 184 170 173 170 161 138 104 61 24 8 9 9 12 17 26 65 107 161 203 236 255 260 248 219 177 115 61 26 85 167 267 359 431 472 465 402 290 168 89 59 81 146 250 382 507 629 740 831 903 960 1003 1033 1052 1062 1069 1074 1072 1057 1023 970 949 923 1014 1094 1177 1239 1283 1310 1320 1316 1299 1263 1209 1133 1041 921 787 641 489 349 243 173 152 164 202 257 310 341 320 254 195 218 261 302 320 337 346 346 331 311 302 313 345 370 377 344 280 215 164 148 166 187 188 155 74 -1 -1 -1 -1 -1 -1 -1 -1 -1
-1 -1 -1 -1 -1 -1 95 282 438 564 655 720 772 815 857 900 944 983 1009 1013 984 915 815 728 706 792 887 954 991 1007 1019 1044 1074 1109 1127 1122 1096 1047 975 886 767 637 504 382 289 252 286 336 387 416 424 401 355 286 206 143 104 104 112 130 145 143 123 90 52 21 -1 -1 -1 9 46 87 134 173 203 215 215 205 176 138 89 42 4 55 123 209 292 358 403 415 386 313 198 84 31 39 84 164 281 401 517 625 717 797 862 920 971 1013 1041 1057 1063 1055 1034 994 932 886 850 946 1029 1119 1184 1233 1267 1289 1301 1304 1291 1262 1209 1139 1037 912 764 600 445 319 226 185 168 171 209 263 323 358 355 308 258 216 248 266 293 313 337 343 329 306 295 313 348 389 411 407 375 334 300 287 288 288 275 226 141 28 -1 -1 -1 -1 -1 -1 -1 -1
-1 -1 -1 -1 -1 -1 101 284 449 581 676 737 774 793 811 837 876 921 954 962 932 863 769 694 726 799 874 914 923 923 939 965 1020 1068 1096 1097 1074 1030 966 878 777 658 529 405 294 210 188 236 288 341 366 358 324 271 207 149 104 66 58 87 109 127 125 107 79 48 22 2 12 38 74 114 149 174 182 172 157 128 95 52 17 -1 27 83 155 222 278 317 335 328 295 228 131 58 35 83 159 250 353 459 550 629 704 764 829 890 946 992 1021 1034 1028 1003 958 894 839 796 892 981 1075 1143 1193 1223 1244 1257 1268 1276 1276 1253 1208 1131 1024 877 696 517 356 278 252 227 208 211 228 289 350 400 407 384 337 292 233 245 246 290 327 344 335 314 299 308 346 393 438 461 460 439 419 403 397 386 356 300 209 98 -1 -1 -1 -1 -1 -1 -1 -1
-1 -1 -1 -1 -1 -1 88 275 434 556 641 686 698 694 694 724 785 851 901 912 881 812 723 679 725 803 851 859 843 834 844 904 972 1030 1062 1070 1053 1018 966 898 808 708 599 489 380 278 200 163 210 267 301 308 294 266 229 186 145 107 77 48 73 90 107 105 90 69 44 27 39 68 102 133 156 160 141 113 79 45 8 -1 -1 -1 43 101 153 197 226 237 238 227 198 143 81 41 76 143 229 323 414 494 565 624 678 743 810 877 932 971 988 982 958 913 848 791 752 844 936 1037 1108 1157 1184 1198 1201 1208 1219 1240 1252 1242 1199 1125 1003 830 635 443 340 318 322 316 291 270 288 323 396 454 481 472 440 381 314 230 239 269 321 353 357 345 326 316 340 392 453 505 528 530 517 507 497 477 438 375 282 167 43 -1 -1 -1 -1 -1 -1 -1
-1 -1 -1 -1 -1 -1 75 253 396 500 560 575 554 525 529 588 689 790 852 868 835 762 693 665 727 793 822 802 764 744 788 860 937 996 1030 1037 1025 999 961 907 838 756 667 570 467 359 251 161 163 192 226 241 248 245 233 213 188 156 117 79 37 55 70 84 86 78 62 53 63 89 116 139 149 138 98 45 -1 -1 -1 -1 -1 -1 44 85 120 143 150 144 139 130 108 73 33 47 93 169 251 331 408 480 540 593 661 737 815 879 924 945 933 899 848 791 738 709 798 889 992 1070 1125 1152 1157 1148 1139 1140 1167 1195 1219 1220 1189 1116 992 816 622 490 427 426 442 437 410 376 364 400 458 521 561 572 548 492 401 305 227 268 322 374 397 391 370 344 340 389 467 539 589 607 607 599 586 565 519 445 344 225 94 -1 -1 -1 -1 -1 -1 -1
-1 -1 -1 -1 -1 -1 50 209 335 410 434 412 356 325 350 475 624 742 817 836 799 731 657 669 716 779 796 762 699 698 755 836 916 971 998 998 983 962 931 890 839 775 702 617 520 416 308 215 141 143 143 160 179 198 209 212 203 184 155 110 67 22 33 49 66 71 70 69 78 95 115 129 130 113 67 -1 -1 -1 -1 -1 -1 -1 19 48 71 84 81 71 62 57 51 35 41 40 83 137 202 265 338 416 494 577 666 750 824 878 904 897 859 789 725 668 657 745 841 947 1027 1088 1124 1130 1111 1082 1061 1075 1107 1148 1180 1192 1172 1115 1007 856 709 615 578 581 586 578 547 506 481 498 547 605 651 674 659 602 497 358 273 256 349 413 443 449 424 380 357 399 487 578 644 683 689 685 672 645 592 506 393 262 116 -1 -1 -1 -1 -1 -1 -1
-1 -1 -1 -1 -1 -1 -1 142 241 286 270 208 152 124 243 415 584 717 794 814 781 708 658 642 706 758 772 737 687 671 736 830 903 955 967 951 922 893 866 836 797 752 692 620 537 447 353 260 184 118 99 93 110 137 163 181 187 185 169 140 95 49 6 18 33 51 59 67 74 86 98 105 102 86 47 -1 -1 -1 -1 -1 -1 -1 -1 13 35 46 45 35 28 29 37 65 76 81 63 79 116 184 272 373 484 589 682 762 821 853 853 826 767 696 629 623 687 785 897 984 1051 1094 1109 1095 1053 1004 989 1007 1052 1100 1138 1155 1153 1115 1036 929 830 768 747 740 741 726 686 651 620 621 653 702 748 775 767 703 570 403 275 312 391 467 505 507 479 419 379 420 515 617 701 750 771 768 754 717 651 554 425 273 102 -1 -1 -1 -1 -1 -1 -1
-1 -1 -1 -1 -1 -1 -1 46 115 130 82 20 -1 65 228 413 581 708 783 801 768 706 635 641 683 734 747 718 678 665 737 825 902 942 942 904 849 799 765 737 710 675 633 575 507 433 356 283 215 161 123 104 82 86 116 131 148 159 161 149 121 77 33 -1 5 16 31 40 50 59 67 70 71 61 35 -1 -1 -1 -1 -1 -1 -1 -1 6 29 40 41 37 38 49 76 110 136 131 104 60 77 153 262 381 497 602 688 751 786 791 771 731 692 636 654 694 755 847 938 1013 1063 1090 1091 1058 1000 943 922 954 1005 1052 1088 1113 1121 1107 1064 1003 947 912 897 896 888 868 834 791 767 757 770 808 849 875 864 791 632 420 299 345 452 535 576 577 535 461 405 446 548 659 753 818 847 850 826 778 696 582 435 256 62 -1 -1 -1 -1 -1 -1 -1
-1 -1 -1 -1 -1 -1 -1 -1 -1 -1 -1 -1 -1 84 268 449 600 715 779 794 761 698 641 616 658 701 714 689 651 678 749 837 903 936 926 874 783 697 633 596 568 549 521 482 428 367 308 256 214 182 157 132 111 95 73 84 96 117 134 140 130 103 61 18 -1 -1 -1 1 10 18 22 31 36 36 24 -1 -1 -1 -1 -1 -1 -1 -1 21 38 44 44 43 50 70 104 147 176 180 149 107 87 160 268 394 504 596 663 701 710 696 671 652 635 687 737 795 853 911 975 1029 1064 1079 1069 1031 968 904 887 915 962 1004 1039 1061 1077 1082 1075 1056 1038 1024 1024 1023 1019 1002 972 937 902 892 896 915 946 969 957 873 694 472 347 386 519 615 658 655 607 513 444 473 582 699 802 877 916 921 892 827 725 586 413 215 2 -1 -1 -1 -1 -1 -1 -1
-1 -1 -1 -1 -1 -1 -1 -1 -1 -1 -1 -1 -1 148 328 493 633 727 781 790 758 700 636 605 627 660 668 662 650 700 777 853 910 933 918 859 763 634 520 437 401 376 373 354 311 264 218 188 172 161 152 140 128 105 80 48 54 72 98 118 126 116 89 47 3 -1 -1 -1 -1 -1 -1 -1 3 11 11 -1 -1 -1 -1 -1 -1 -1 12 34 41 37 27 24 28 50 93 145 185 201 191 163 155 166 266 374 480 554 601 615 609 600 599 609 686 763 838 894 933 971 1005 1036 1057 1059 1043 1005 950 899 868 889 923 959 986 1007 1021 1043 1061 1078 1090 1100 1112 1121 1123 1118 1097 1065 1034 1013 1014 1024 1042 1061 1044 953 771 555 450 493 603 706 753 748 697 607 509 527 609 734 843 926 971 978 942 863 740 572 372 149 -1 -1 -1 -1 -1 -1 -1 -1
-1 -1 -1 -1 -1 -1 -1 -1 -1 -1 -1 -1 55 227 393 542 656 740 781 786 757 705 646 600 601 613 631 637 685 740 809 872 914 928 909 857 763 646 505 362 270 233 237 227 209 165 141 123 123 119 114 115 112 102 78 52 27 38 63 90 110 116 106 77 32 -1 -1 -1 -1 -1 -1 -1 -1 -1 -1 -1 -1 -1 -1 -1 -1 4 21 26 18 2 -1 -1 -1 -1 41 103 158 197 213 223 222 234 252 343 419 482 515 529 538 553 590 674 759 854 924 967 991 1006 1023 1037 1040 1030 1006 970 928 886 865 862 895 922 941 951 971 992 1028 1065 1099 1131 1157 1184 1202 1208 1200 1179 1150 1131 1120 1127 1141 1148 1127 1034 855 666 588 630 726 810 858 854 810 731 652 578 646 747 870 962 1013 1019 973 879 739 555 321 105 -1 -1 -1 -1 -1 -1 -1 -1
-1 -1 -1 -1 -1 -1 -1 -1 -1 -1 -1 -1 132 296 455 580 680 742 774 776 754 712 659 615 586 591 613 666 723 784 840 884 911 912 892 848 781 682 554 414 294 215 188 176 165 167 149 132 108 97 88 84 86 80 67 45 26 15 36 60 85 105 111 96 63 18 -1 -1 -1 -1 -1 -1 -1 -1 -1 0 -1 -1 -1 -1 9 17 13 -1 -1 -1 -1 -1 -1 -1 -1 55 125 186 240 278 303 309 320 316 374 422 458 500 542 599 677 770 865 933 986 1012 1019 1022 1026 1029 1022 999 965 928 893 863 843 854 873 895 905 915 925 951 987 1029 1073 1116 1163 1210 1248 1271 1276 1272 1253 1231 1223 1220 1230 1232 1205 1115 954 788 735 774 855 927 965 964 931 878 793 725 659 752 871 986 1046 1044 987 876 721 516 317 95 10 -1 -1 -1 -1 -1 -1 -1
-1 -1 -1 -1 -1 -1 -1 -1 -1 -1 -1 62 214 368 499 612 690 737 756 757 741 712 673 631 608 616 650 701 764 820 863 890 894 880 858 825 779 712 620 509 400 329 277 251 236 231 221 190 163 133 112 90 76 67 56 42 22 19 18 37 65 92 110 107 84 50 9 -1 -1 -1 -1 -1 -1 -1 2 12 16 20 23 28 31 23 -1 -1 -1 -1 -1 -1 -1 -1 -1 48 125 206 279 340 383 408 405 401 390 435 503 560 628 706 790 877 951 1002 1026 1035 1030 1023 1020 1018 1007 980 936 896 863 838 833 840 861 880 892 889 897 913 940 977 1019 1071 1136 1206 1262 1306 1332 1340 1336 1323 1313 1310 1310 1310 1281 1198 1054 922 875 916 983 1040 1071 1070 1048 1004 943 845 766 733 868 1003 1070 1063 992 867 692 522 323 218 132 48 -1 -1 -1 -1 -1 -1
-1 -1 -1 -1 -1 -1 -1 -1 -1 -1 4 150 293 426 539 626 684 714 726 724 717 701 679 657 650 660 693 739 793 842 873 884 867 832 796 770 747 712 660 591 521 459 413 372 350 328 304 274 236 201 164 130 100 81 63 47 40 32 29 36 57 85 108 114 101 73 35 -1 -1 -1 -1 -1 -1 -1 10 20 29 36 43 48 45 23 -1 -1 -1 -1 -1 -1 -1 -1 11 80 155 241 328 404 463 502 520 515 524 556 611 678 742 814 888 956 1010 1040 1049 1044 1032 1020 1013 1012 1003 977 940 900 865 835 820 830 851 874 886 885 879 882 903 927 964 1017 1094 1178 1256 1316 1361 1390 1399 1398 1389 1386 1385 1377 1351 1276 1156 1048 1022 1057 1105 1149 1169 1168 1152 1115 1056 965 840 775 879 1019 1088 1077 996 861 708 541 422 326 236 119 -1 -1 -1 -1 -1 -1
-1 -1 -1 -1 -1 -1 -1 -1 -1 -1 87 224 355 467 559 622 658 676 681 683 682 680 676 678 684 700 728 767 809 849 874 872 837 773 711 683 672 673 662 637 599 560 519 482 445 414 379 341 300 258 218 179 142 113 92 77 68 64 58 57 68 88 109 118 109 85 51 18 -1 -1 -1 -1 -1 3 10 17 25 34 44 53 50 26 -1 -1 -1 -1 -1 -1 -1 -1 19 105 183 267 359 447 522 580 619 641 661 693 738 788 841 891 945 996 1033 1053 1054 1046 1031 1019 1011 1010 1005 990 962 923 879 841 821 825 846 874 887 887 876 878 881 899 916 964 1044 1139 1230 1310 1370 1416 1445 1456 1458 1454 1450 1444 1414 1350 1252 1176 1159 1183 1220 1243 1259 1254 1235 1202 1143 1043 907 822 910 1039 1106 1089 1007 885 743 611 497 391 266 121 -1 -1 -1 -1 -1 -1
-1 -1 -1 -1 -1 -1 -1 -1 -1 33 161 281 394 490 559 602 621 626 629 633 639 643 663 681 699 717 743 776 813 846 867 858 811 736 633 569 566 589 620 632 626 607 579 544 506 465 425 382 339 296 255 212 173 140 115 104 97 94 90 88 89 101 113 117 106 84 53 26 8 1 -1 1 0 -1 -1 -1 4 14 27 43 49 27 -1 -1 -1 -1 -1 -1 -1 -1 9 87 175 258 350 451 544 623 683 725 756 784 816 851 885 922 960 996 1027 1045 1049 1044 1033 1024 1017 1013 1012 1005 985 947 897 851 834 844 857 877 896 896 891 888 890 882 892 930 1001 1097 1195 1287 1366 1427 1471 1498 1507 1511 1507 1496 1474 1420 1348 1297 1280 1292 1314 1331 1332 1325 1301 1261 1193 1091 960 881 959 1074 1128 1109 1030 915 787 654 518 366 205 39 -1 -1 -1 -1 -1 -1
-1 -1 -1 -1 -1 -1 -1 -1 -1 100 217 327 425 498 548 570 576 573 578 584 588 615 646 674 692 710 732 763 801 838 858 848 803 715 612 494 445 480 534 579 602 605 589 560 522 481 437 396 355 314 272 230 188 145 115 102 104 107 110 110 110 114 117 113 95 68 39 12 -1 -1 -1 1 -1 -1 -1 -1 -1 -1 -1 27 44 32 -1 -1 -1 -1 -1 -1 -1 -1 -1 56 122 204 301 415 529 624 701 755 791 816 836 854 872 897 929 968 1000 1023 1037 1040 1037 1033 1028 1024 1017 1015 1003 973 919 878 871 875 893 905 915 925 921 917 910 900 901 925 982 1067 1166 1266 1357 1431 1486 1522 1543 1552 1552 1543 1524 1485 1436 1397 1380 1388 1396 1399 1396 1378 1345 1289 1210 1103 1004 950 1037 1126 1163 1134 1056 941 810 656 463 247 55 -1 -1 -1 -1 -1 -1 -1
-1 -1 -1 -1 -1 -1 -1 -1 36 152 262 360 443 505 534 538 530 529 530 533 564 598 631 653 667 676 700 735 782 825 850 846 803 733 627 504 381 378 424 491 539 557 553 531 499 459 419 380 344 308 272 234 191 144 92 76 77 92 103 111 115 117 114 102 77 42 3 -1 -1 -1 -1 -1 -1 -1 -1 -1 -1 -1 -1 11 39 41 8 -1 -1 -1 -1 -1 -1 17 35 34 84 155 255 374 491 599 682 744 781 802 811 817 824 842 881 923 960 989 1012 1027 1034 1039 1038 1036 1031 1026 1021 1000 959 927 920 932 935 948 960 963 970 965 955 955 951 963 1001 1070 1162 1262 1353 1434 1493 1536 1562 1577 1582 1577 1564 1538 1502 1476 1466 1463 1464 1459 1445 1415 1364 1290 1190 1097 1016 1067 1122 1187 1200 1160 1073 951 797 601 350 98 -1 -1 -1 -1 -1 -1 -1 -1
-1 -1 -1 -1 -1 -1 -1 -1 68 186 293 385 458 507 527 518 498 490 487 510 543 582 607 620 619 633 656 707 764 813 843 845 818 759 671 550 428 308 329 385 444 473 477 463 436 402 368 335 306 279 252 224 189 141 84 27 28 43 69 85 95 99 97 84 57 12 -1 -1 -1 -1 -1 -1 -1 -1 -1 -1 -1 -1 -1 0 38 56 46 11 -1 -1 -1 -1 -1 48 81 104 136 199 273 364 466 562 650 712 750 766 767 767 770 799 837 876 910 940 968 993 1012 1025 1035 1042 1044 1044 1044 1029 1014 989 981 986 998 1003 1013 1025 1027 1031 1029 1025 1030 1036 1063 1113 1194 1281 1370 1439 1499 1541 1571 1587 1593 1593 1586 1571 1551 1538 1529 1525 1517 1506 1479 1433 1360 1261 1164 1073 1114 1156 1217 1244 1234 1175 1072 922 730 491 239 -1 -1 -1 -1 -1 -1 -1 -1 -1
-1 -1 -1 -1 -1 -1 -1 -1 59 196 306 402 473 517 531 518 492 469 473 494 525 552 569 569 577 586 633 696 758 806 835 839 820 775 705 610 486 368 260 294 332 365 371 362 341 313 286 264 245 227 213 198 174 137 79 10 -1 -1 11 33 47 59 62 58 33 -1 -1 -1 -1 -1 -1 -1 -1 -1 -1 -1 -1 -1 -1 2 46 77 87 78 53 10 -1 -1 -1 43 111 167 221 280 346 413 480 555 624 683 716 729 730 729 742 768 798 826 850 878 908 939 962 981 1002 1025 1047 1064 1069 1072 1061 1053 1043 1049 1059 1072 1077 1086 1098 1103 1106 1111 1113 1129 1147 1187 1244 1321 1391 1456 1505 1542 1567 1580 1585 1586 1586 1582 1579 1576 1573 1568 1559 1536 1498 1434 1340 1236 1137 1157 1198 1258 1285 1291 1253 1169 1034 844 615 379 146 52 -1 -1 -1 -1 -1 -1 -1 -1
-1 -1 -1 -1 -1 -1 -1 -1 22 169 303 406 483 529 544 533 507 480 466 479 499 515 521 532 538 578 635 700 759 801 822 822 803 767 715 643 549 427 317 219 235 245 250 241 224 203 185 176 165 158 159 156 147 122 75 5 -1 -1 -1 -1 -1 -1 15 21 4 -1 -1 -1 -1 -1 -1 4 18 11 -1 -1 -1 -1 -1 7 56 98 125 138 129 105 58 10 -1 26 102 189 268 343 414 478 536 584 635 673 702 714 713 714 724 740 756 769 785 806 835 864 882 904 933 977 1027 1069 1097 1106 1111 1106 1108 1111 1125 1139 1149 1156 1167 1180 1187 1190 1203 1221 1243 1269 1312 1364 1427 1474 1512 1535 1549 1553 1554 1557 1563 1572 1581 1593 1599 1598 1585 1556 1507 1429 1328 1226 1217 1251 1302 1333 1343 1316 1247 1133 962 740 502 310 268 202 124 5 -1 -1 -1 -1 -1 -1
-1 -1 -1 -1 -1 -1 -1 -1 -1 116 264 389 479 535 559 555 532 497 470 470 470 482 491 511 551 600 660 718 764 791 797 784 761 729 692 642 574 483 369 267 165 151 136 124 104 88 85 83 81 87 92 102 106 98 67 7 -1 -1 -1 -1 -1 -1 -1 -1 -1 -1 -1 -1 -1 -1 -1 18 41 46 30 2 -1 -1 -1 6 55 107 150 180 194 185 155 99 50 5 77 162 266 357 444 522 586 637 671 699 716 724 722 713 711 709 709 713 718 738 760 778 794 804 846 909 987 1060 1110 1141 1153 1162 1163 1172 1186 1203 1217 1227 1235 1252 1263 1272 1283 1306 1327 1351 1376 1416 1457 1492 1509 1515 1513 1507 1504 1506 1520 1537 1567 1592 1609 1612 1600 1568 1513 1433 1344 1303 1319 1357 1385 1396 1376 1320 1223 1081 894 677 502 458 417 371 264 116 -1 -1 -1 -1 -1 -1
-1 -1 -1 -1 -1 -1 -1 -1 -1 25 192 341 455 528 566 574 555 518 485 463 471 479 502 538 587 640 694 738 764 767 749 722 690 665 637 603 559 497 415 309 210 114 77 53 32 15 4 7 12 16 29 44 61 66 56 22 -1 -1 -1 -1 -1 -1 -1 -1 -1 -1 -1 -1 -1 -1 -1 26 56 69 67 50 22 -1 -1 -1 42 100 156 202 233 247 234 201 140 92 45 123 209 317 420 521 607 670 713 737 751 756 748 728 700 684 672 668 680 698 713 725 730 741 772 849 947 1036 1110 1159 1190 1205 1218 1226 1240 1261 1277 1293 1308 1320 1336 1346 1360 1378 1397 1418 1438 1462 1486 1498 1495 1480 1463 1449 1440 1445 1461 1501 1540 1578 1603 1612 1604 1575 1528 1464 1410 1400 1416 1442 1452 1436 1393 1316 1199 1049 882 743 653 610 565 470 334 159 -1 -1 -1 -1 -1 -1
-1 -1 -1 -1 -1 -1 -1 -1 -1 -1 84 263 404 503 562 584 573 539 496 475 486 514 545 581 630 681 723 751 750 722 679 633 596 572 555 534 506 470 415 341 254 174 117 77 45 17 -1 -1 -1 -1 -1 -1 18 35 44 32 -1 -1 -1 -1 -1 -1 -1 -1 -1 -1 -1 -1 -1 -1 -1 10 47 71 83 79 60 22 -1 -1 18 80 142 198 243 275 286 272 236 178 132 74 137 216 338 467 578 664 723 763 784 791 783 752 713 673 652 659 688 718 744 744 761 759 767 828 918 1018 1097 1165 1212 1243 1261 1277 1293 1310 1331 1351 1372 1388 1401 1413 1424 1438 1457 1472 1484 1499 1504 1495 1469 1435 1408 1388 1380 1383 1416 1458 1507 1550 1581 1600 1601 1585 1550 1512 1487 1480 1493 1502 1494 1462 1404 1313 1197 1071 948 854 786 716 621 488 318 120 -1 -1 -1 -1 -1 -1
-1 -1 -1 -1 -1 -1 -1 -1 -1 -1 -1 156 325 453 537 582 587 559 517 492 508 544 585 627 670 716 746 752 723 662 590 527 484 461 452 442 430 411 380 336 282 224 172 126 82 36 -1 -1 -1 -1 -1 -1 -1 18 35 38 20 -1 -1 -1 -1 -1 -1 -1 -1 -1 -1 -1 -1 -1 -1 -1 10 44 67 77 72 46 4 -1 -1 43 103 161 217 263 295 305 293 263 209 154 82 104 229 359 491 597 681 743 785 809 812 788 744 692 665 671 707 763 800 828 824 840 842 845 920 1001 1092 1161 1220 1264 1296 1320 1340 1358 1376 1400 1425 1443 1458 1469 1479 1491 1503 1512 1520 1519 1510 1483 1443 1393 1358 1342 1333 1348 1377 1421 1468 1511 1544 1571 1589 1590 1576 1558 1547 1545 1546 1542 1519 1476 1409 1324 1222 1115 1013 926 833 722 580 407 218 12 -1 -1 -1 -1 -1 -1
-1 -1 -1 -1 -1 -1 -1 -1 -1 -1 -1 44 227 379 494 564 592 582 548 517 527 560 607 655 700 738 758 744 689 600 496 419 371 350 343 345 344 335 324 304 271 230 185 140 90 41 -1 -1 -1 -1 -1 -1 2 20 35 43 38 20 -1 -1 -1 -1 -1 -1 -1 -1 -1 -1 -1 -1 -1 -1 -1 -1 20 44 54 46 20 -1 -1 -1 40 92 151 209 256 286 296 291 269 219 163 133 125 237 344 460 572 659 731 787 818 820 788 745 703 702 744 794 861 893 920 912 927 935 935 1011 1085 1161 1220 1272 1313 1349 1377 1399 1418 1442 1465 1486 1502 1513 1521 1528 1536 1539 1536 1525 1503 1470 1422 1375 1335 1316 1314 1327 1353 1388 1426 1458 1490 1529 1566 1588 1596 1595 1593 1590 1584 1566 1534 1481 1416 1331 1242 1138 1030 909 773 615 440 244 53 -1 -1 -1 -1 -1 -1 -1
-1 -1 -1 -1 -1 -1 -1 -1 -1 -1 -1 -1 135 298 432 529 584 599 585 560 542 568 607 657 707 745 755 728 654 542 417 324 279 263 257 262 263 269 271 264 242 204 161 118 78 32 25 20 20 22 25 29 34 40 45 51 49 37 15 -1 -1 -1 -1 -1 -1 -1 -1 -1 -1 -1 -1 -1 -1 -1 -1 -1 6 18 19 6 -1 -1 -1 17 67 124 179 213 233 249 259 255 240 207 184 152 196 312 402 507 615 717 792 834 837 801 759 757 796 852 892 953 976 995 986 998 1007 1019 1091 1160 1222 1274 1323 1364 1403 1431 1455 1475 1497 1516 1530 1539 1545 1549 1550 1547 1537 1516 1489 1452 1412 1368 1335 1317 1314 1321 1340 1363 1385 1405 1434 1480 1532 1576 1603 1619 1625 1623 1610 1583 1542 1488 1412 1330 1226 1109 966 800 609 407 216 46 -1 -1 -1 -1 -1 -1 -1 -1
-1 -1 -1 -1 -1 -1 -1 -1 -1 -1 -1 -1 94 240 376 486 565 611 620 602 578 569 597 641 693 734 742 703 615 490 365 275 242 229 218 211 218 224 242 247 227 187 144 104 74 72 71 71 73 70 69 69 66 62 57 56 51 39 18 -1 -1 -1 -1 -1 -1 -1 -1 -1 -1 -1 -1 -1 -1 -1 -1 -1 -1 -1 -1 16 15 3 -1 -1 -1 48 82 110 120 147 182 223 257 275 264 245 245 220 272 359 489 626 743 827 864 856 828 819 852 902 950 971 1017 1030 1043 1037 1047 1064 1106 1166 1224 1279 1331 1377 1417 1452 1477 1500 1516 1532 1542 1548 1549 1549 1544 1534 1516 1492 1465 1435 1402 1373 1348 1337 1331 1333 1338 1347 1355 1364 1390 1435 1494 1553 1598 1628 1644 1643 1626 1597 1550 1484 1405 1295 1167 1010 826 607 371 161 -1 -1 -1 -1 -1 -1 -1 -1 -1 -1
-1 -1 -1 -1 -1 -1 -1 -1 -1 -1 30 78 149 236 350 458 551 616 645 638 611 590 587 622 673 717 725 677 576 456 341 299 287 265 232 209 202 224 251 264 251 220 179 144 122 113 112 112 110 109 103 96 86 73 62 51 41 30 11 -1 -1 -1 -1 -1 -1 -1 -1 -1 -1 -1 -1 -1 -1 -1 -1 -1 -1 -1 -1 9 31 37 25 9 2 -1 23 20 32 48 92 147 223 295 339 365 354 341 320 366 452 569 701 803 875 899 891 892 910 952 990 1020 1017 1052 1061 1071 1084 1104 1138 1181 1232 1285 1339 1386 1428 1461 1488 1506 1521 1530 1534 1535 1533 1527 1517 1499 1475 1450 1428 1409 1391 1375 1366 1359 1357 1355 1352 1348 1346 1348 1361 1398 1457 1522 1582 1626 1651 1656 1640 1607 1553 1477 1373 1239 1054 846 619 406 158 17 -1 -1 -1 -1 -1 -1 -1 -1 -1 -1
-1 -1 -1 -1 -1 -1 -1 -1 -1 34 121 192 241 303 376 463 555 624 662 663 637 602 588 607 656 701 710 660 561 442 396 387 372 329 269 221 228 260 293 309 303 274 233 189 154 132 124 122 124 121 114 101 84 66 47 33 20 12 -1 -1 -1 -1 -1 -1 -1 -1 -1 -1 -1 -1 -1 -1 -1 -1 -1 -1 -1 -1 -1 5 33 49 55 53 40 32 13 40 53 65 64 107 191 288 377 442 480 485 488 497 530 599 687 795 876 929 945 952 972 1000 1033 1048 1055 1046 1078 1097 1113 1138 1169 1208 1255 1301 1349 1395 1432 1462 1482 1497 1506 1509 1506 1504 1498 1488 1472 1447 1417 1391 1379 1372 1370 1371 1372 1372 1372 1371 1367 1362 1357 1357 1358 1380 1428 1494 1559 1615 1652 1663 1650 1613 1550 1457 1333 1158 928 661 453 271 211 129 110 93 56 -1 -1 -1 -1 -1 -1 -1
-1 -1 -1 -1 -1 -1 -1 -1 -1 48 169 259 330 388 446 507 572 639 676 682 653 611 586 602 645 693 706 663 573 509 489 489 467 400 302 259 278 323 358 371 359 322 266 204 143 108 92 98 102 103 95 81 62 39 19 2 -1 -1 -1 -1 -1 -1 -1 -1 -1 -1 -1 -1 -1 -1 -1 -1 -1 -1 -1 -1 -1 -1 5 16 34 50 61 74 83 85 95 110 140 154 158 166 217 304 401 491 561 610 633 647 666 694 739 809 892 952 989 1006 1024 1048 1069 1082 1077 1072 1092 1122 1144 1169 1205 1244 1287 1328 1366 1401 1430 1452 1466 1471 1473 1470 1461 1455 1446 1433 1409 1377 1343 1325 1318 1324 1336 1349 1355 1355 1355 1355 1360 1370 1379 1380 1384 1389 1421 1478 1547 1607 1651 1669 1656 1616 1544 1439 1291 1095 856 630 452 430 384 333 268 192 90 -1 -1 -1 -1 -1 -1 -1
-1 -1 -1 -1 -1 -1 -1 -1 -1 17 163 287 379 451 515 567 619 661 698 699 669 619 594 602 647 694 716 690 640 599 593 587 551 464 362 323 355 401 431 433 405 349 274 184 114 58 47 50 59 61 57 42 23 2 -1 -1 -1 -1 -1 -1 -1 -1 -1 -1 -1 -1 -1 -1 -1 -1 -1 -1 -1 5 25 44 55 56 55 52 48 46 51 70 101 132 164 203 236 264 283 298 326 373 451 534 619 689 739 770 791 809 832 868 922 984 1026 1054 1069 1086 1103 1109 1103 1108 1126 1151 1178 1206 1241 1280 1316 1349 1379 1403 1420 1430 1431 1431 1424 1411 1403 1393 1386 1369 1335 1292 1260 1246 1251 1273 1294 1308 1311 1302 1286 1286 1305 1347 1388 1412 1420 1429 1443 1486 1549 1611 1655 1673 1661 1618 1543 1436 1276 1095 927 777 691 628 561 454 320 176 25 -1 -1 -1 -1 -1 -1 -1
-1 -1 -1 -1 -1 -1 -1 -1 -1 -1 120 267 391 483 555 618 666 704 722 724 689 651 621 624 658 711 739 739 718 697 681 668 618 526 432 412 446 485 500 482 432 355 255 170 80 38 7 7 16 20 17 8 -1 -1 -1 -1 -1 -1 -1 -1 -1 -1 -1 -1 -1 -1 -1 -1 -1 -1 -1 1 20 41 65 89 107 114 107 95 73 52 44 58 98 152 207 266 317 360 396 431 455 493 536 600 672 748 810 858 891 908 928 949 980 1023 1066 1096 1113 1124 1133 1139 1143 1146 1164 1188 1216 1247 1277 1308 1337 1358 1373 1384 1390 1385 1384 1371 1357 1346 1334 1329 1318 1297 1257 1205 1171 1165 1192 1221 1243 1250 1240 1212 1182 1166 1217 1299 1374 1429 1458 1473 1490 1520 1568 1622 1664 1681 1669 1623 1549 1441 1316 1179 1064 968 881 776 633 441 231 41 -1 -1 -1 -1 -1 -1 -1 -1
-1 -1 -1 -1 -1 -1 -1 -1 -1 -1 48 217 364 482 573 647 704 741 761 758 736 699 672 675 698 737 775 789 788 777 756 724 666 581 513 515 541 559 553 512 441 344 252 150 83 23 -1 -1 -1 1 0 -1 -1 -1 -1 -1 -1 -1 -1 -1 -1 -1 -1 -1 -1 -1 -1 -1 -1 -1 -1 -1 25 52 79 108 133 148 151 135 109 73 51 53 86 148 225 297 371 428 483 528 569 604 647 684 739 801 865 918 960 989 1005 1025 1046 1074 1108 1137 1154 1164 1172 1177 1182 1189 1203 1228 1257 1285 1308 1327 1338 1342 1342 1340 1330 1324 1312 1296 1283 1267 1266 1259 1248 1227 1184 1127 1090 1104 1145 1175 1186 1175 1151 1121 1074 1080 1149 1242 1343 1422 1478 1512 1537 1564 1600 1642 1678 1692 1677 1632 1560 1473 1370 1270 1173 1079 960 806 588 335 62 -1 -1 -1 -1 -1 -1 -1 -1 -1
-1 -1 -1 -1 -1 -1 -1 -1 -1 -1 -1 148 315 454 566 654 725 772 796 803 789 762 741 743 762 788 817 839 846 837 813 765 704 631 617 613 621 619 587 525 436 350 246 162 79 25 -1 0 12 16 18 15 11 5 -1 -1 -1 -1 -1 -1 -1 -1 -1 -1 -1 -1 -1 -1 -1 -1 -1 -1 11 35 65 97 128 155 170 169 147 113 80 66 83 140 224 316 397 474 538 599 650 695 733 774 810 857 911 962 1005 1037 1061 1078 1098 1121 1147 1172 1192 1205 1213 1219 1226 1232 1246 1269 1295 1317 1328 1327 1317 1300 1284 1261 1250 1233 1222 1211 1196 1196 1193 1190 1182 1157 1114 1069 1046 1082 1116 1130 1117 1095 1078 1059 1076 1087 1112 1204 1301 1402 1475 1534 1572 1603 1634 1667 1695 1706 1690 1647 1582 1503 1417 1314 1209 1082 927 725 500 221 42 -1 -1 -1 -1 -1 -1 -1 -1 -1
-1 -1 -1 -1 -1 -1 -1 -1 -1 -1 -1 101 260 413 541 645 727 789 827 842 842 826 814 812 826 847 868 886 894 884 851 801 735 713 703 701 687 660 611 533 450 351 264 165 95 40 32 43 52 54 52 48 41 33 23 10 -1 -1 -1 -1 -1 -1 -1 -1 -1 -1 -1 -1 -1 -1 -1 -1 -1 1 26 59 98 134 160 176 175 156 130 107 110 151 227 324 419 501 576 642 704 756 800 839 874 909 950 991 1028 1056 1079 1100 1120 1145 1172 1198 1220 1239 1252 1260 1268 1277 1289 1309 1328 1339 1334 1310 1271 1233 1192 1164 1138 1130 1121 1111 1112 1115 1123 1122 1111 1087 1054 1022 1045 1066 1082 1077 1063 1043 1057 1106 1140 1157 1169 1190 1284 1376 1471 1535 1592 1632 1665 1694 1717 1721 1704 1661 1602 1525 1427 1315 1166 992 800 618 408 324 215 126 47 -1 -1 -1 -1 -1 -1 -1
-1 -1 -1 -1 -1 -1 -1 -1 -1 -1 -1 71 238 379 513 628 719 791 845 875 886 887 878 878 888 903 919 932 935 921 885 832 802 783 779 765 737 693 627 554 465 375 270 196 115 95 94 95 98 92 81 69 59 47 35 23 12 1 -1 -1 -1 -1 -1 -1 -1 -1 -1 -1 -1 -1 -1 -1 -1 -1 -1 10 49 84 118 151 179 188 182 173 170 194 254 339 436 523 604 675 740 797 844 886 919 949 978 1003 1022 1040 1054 1073 1099 1134 1169 1206 1237 1261 1282 1297 1305 1316 1326 1340 1351 1350 1328 1279 1210 1140 1088 1046 1032 1017 1016 1013 1025 1043 1057 1061 1046 1026 1000 1019 1034 1043 1037 1034 1035 1082 1129 1183 1231 1258 1254 1265 1292 1383 1461 1539 1595 1649 1688 1719 1737 1736 1716 1676 1616 1536 1426 1276 1087 878 699 547 531 477 406 299 182 59 -1 -1 -1 -1 -1 -1
-1 -1 -1 -1 -1 -1 -1 -1 -1 -1 -1 100 239 383 500 613 713 791 851 895 922 932 935 937 942 953 963 973 972 956 920 882 859 850 833 810 772 717 652 573 488 387 305 213 190 169 157 144 126 106 85 66 50 39 28 17 11 7 3 0 -1 -1 -1 -1 0 -1 -1 -1 -1 -1 -1 -1 -1 -1 -1 -1 -1 11 53 109 162 202 224 234 244 261 303 374 456 548 627 700 765 823 872 911 941 963 977 982 979 970 976 991 1034 1088 1146 1199 1242 1276 1299 1320 1333 1343 1353 1360 1361 1349 1313 1244 1151 1055 981 953 930 931 920 932 947 983 1016 1022 1002 975 986 1005 1016 1013 1001 1021 1086 1148 1212 1266 1311 1336 1346 1340 1363 1408 1479 1543 1607 1659 1705 1736 1754 1751 1727 1686 1625 1534 1414 1244 1052 872 723 692 664 614 505 363 211 60 -1 -1 -1 -1 -1 -1
-1 -1 -1 -1 -1 -1 -1 -1 -1 -1 28 153 283 402 517 620 710 791 856 906 943 967 978 986 990 997 1002 1006 1001 985 956 928 909 895 874 843 798 742 675 597 506 425 330 289 256 231 198 162 123 86 57 32 17 5 -1 -1 -1 0 8 10 7 3 2 5 9 8 6 5 7 11 7 -1 -1 -1 -1 -1 -1 -1 0 63 134 196 242 275 302 331 366 418 494 569 650 720 782 837 881 914 934 941 935 916 881 853 838 883 950 1034 1118 1187 1241 1279 1308 1329 1344 1354 1359 1361 1354 1334 1293 1219 1111 1006 923 882 874 859 865 871 909 962 1004 1013 989 964 971 982 990 985 1020 1068 1132 1204 1264 1314 1353 1380 1392 1402 1415 1450 1502 1563 1619 1673 1714 1749 1766 1763 1738 1695 1628 1538 1406 1267 1116 985 896 837 774 662 497 290 106 -1 -1 -1 -1 -1 -1 -1
-1 -1 -1 -1 -1 -1 -1 -1 -1 -1 104 219 330 439 540 634 721 796 863 915 956 986 1006 1018 1026 1031 1032 1031 1022 1006 984 963 945 926 902 866 821 765 700 621 544 458 402 346 303 257 204 142 83 32 -1 -1 -1 -1 -1 -1 -1 -1 4 16 17 13 8 8 9 11 10 13 17 23 23 14 -1 -1 -1 -1 -1 -1 -1 27 97 172 235 287 333 375 419 471 529 599 668 735 791 836 870 890 894 880 850 797 741 689 724 796 893 1005 1099 1178 1234 1276 1306 1326 1337 1345 1349 1343 1332 1310 1272 1203 1109 999 922 874 844 834 831 854 899 955 1002 1017 1004 981 956 963 959 995 1039 1097 1160 1222 1276 1316 1345 1366 1382 1401 1429 1469 1521 1582 1639 1685 1730 1758 1776 1772 1748 1704 1638 1544 1437 1321 1210 1116 1028 929 799 621 383 137 -1 -1 -1 -1 -1 -1 -1 -1
-1 -1 -1 -1 -1 -1 -1 -1 -1 23 146 267 371 469 561 650 729 805 867 922 962 994 1018 1036 1046 1049 1047 1040 1030 1015 998 981 965 946 920 886 842 790 723 656 579 515 449 379 309 239 167 89 13 -1 -1 -1 -1 -1 -1 -1 -1 -1 -1 10 16 12 2 -1 -1 -1 -1 2 8 14 19 21 20 18 18 18 8 -1 -1 -1 60 127 201 268 330 392 450 509 567 625 687 740 786 819 837 838 820 785 719 653 585 603 684 796 904 1001 1100 1172 1228 1266 1291 1306 1313 1321 1320 1312 1296 1279 1248 1195 1116 1033 954 898 855 829 829 853 897 950 993 1017 1015 996 974 947 964 987 1035 1086 1141 1196 1242 1274 1291 1300 1314 1341 1388 1451 1521 1589 1649 1699 1739 1769 1783 1780 1757 1715 1649 1568 1474 1375 1280 1186 1070 923 736 494 239 -1 -1 -1 -1 -1 -1 -1 -1 -1
-1 -1 -1 -1 -1 -1 -1 -1 -1 36 168 282 394 490 577 656 735 803 869 919 962 994 1020 1038 1049 1052 1045 1034 1020 1007 991 976 964 950 927 899 860 809 753 687 621 551 471 381 277 179 91 7 -1 -1 -1 -1 -1 -1 -1 -1 -1 -1 -1 -1 2 -1 -1 -1 -1 -1 -1 -1 -1 -1 -1 -1 13 31 48 59 59 49 36 27 17 76 138 214 294 377 455 524 586 643 692 734 764 780 776 757 719 656 594 507 539 633 733 840 940 1032 1106 1170 1214 1242 1258 1267 1274 1277 1274 1265 1255 1239 1220 1179 1124 1057 991 927 876 841 833 849 886 931 972 999 1007 999 983 968 952 976 1001 1037 1085 1134 1176 1199 1207 1209 1214 1248 1310 1401 1494 1578 1650 1706 1748 1777 1790 1786 1764 1722 1662 1587 1503 1407 1304 1178 1010 805 575 352 95 -1 -1 -1 -1 -1 -1 -1 -1 -1
-1 -1 -1 -1 -1 -1 -1 -1 -1 11 149 281 390 494 580 661 732 803 859 911 954 987 1010 1027 1036 1035 1027 1010 991 976 960 949 942 934 921 900 868 828 778 720 653 574 480 361 225 90 -1 -1 -1 -1 -1 -1 -1 -1 -1 -1 -1 -1 -1 -1 -1 -1 -1 -1 -1 -1 -1 -1 -1 -1 -1 -1 -1 9 52 86 101 106 95 75 47 28 69 137 232 338 431 514 583 638 679 705 717 712 689 650 591 543 474 536 614 715 812 899 983 1052 1112 1154 1183 1199 1207 1211 1220 1218 1215 1207 1199 1193 1175 1149 1110 1063 1008 949 891 848 823 830 856 894 932 955 965 968 968 963 964 957 972 995 1024 1069 1101 1120 1129 1128 1134 1166 1240 1347 1460 1560 1641 1705 1751 1779 1792 1788 1765 1726 1669 1598 1508 1412 1283 1109 888 628 406 227 191 83 -1 -1 -1 -1 -1 -1 -1 -1
-1 -1 -1 -1 -1 -1 -1 -1 -1 -1 112 248 375 478 572 651 724 789 849 899 938 967 987 999 1004 1004 991 969 942 920 907 901 898 901 897 887 867 836 794 743 675 593 484 348 178 11 -1 -1 -1 -1 -1 -1 -1 -1 -1 -1 -1 -1 -1 -1 -1 -1 -1 -1 -1 -1 -1 -1 -1 -1 -1 -1 -1 -1 35 98 137 153 157 140 108 77 43 67 170 275 386 476 550 604 636 648 638 613 573 516 473 429 537 624 720 805 882 951 1009 1061 1096 1121 1132 1139 1137 1146 1148 1147 1141 1139 1138 1131 1121 1101 1074 1042 1002 953 899 845 805 785 802 833 860 876 881 889 901 923 944 966 987 1011 1028 1037 1057 1076 1091 1100 1110 1142 1218 1320 1437 1544 1630 1698 1746 1778 1790 1785 1763 1725 1670 1594 1508 1388 1231 1036 798 569 386 359 316 229 78 -1 -1 -1 -1 -1 -1 -1
-1 -1 -1 -1 -1 -1 -1 -1 -1 -1 69 211 337 454 551 636 709 773 830 878 913 935 948 955 959 955 941 909 871 843 830 827 836 845 856 857 848 828 798 754 694 610 497 347 164 -1 -1 -1 -1 -1 -1 -1 -1 -1 -1 -1 -1 -1 -1 -1 -1 -1 -1 -1 -1 -1 -1 -1 -1 -1 -1 -1 -1 -1 18 95 160 198 214 213 193 157 121 101 108 214 312 409 481 533 560 558 530 481 427 389 370 497 607 718 799 866 922 970 1011 1039 1057 1061 1064 1057 1065 1063 1067 1059 1066 1069 1066 1062 1051 1039 1019 999 975 938 890 834 772 728 724 742 757 755 752 751 777 822 884 949 1007 1047 1068 1076 1086 1098 1115 1131 1150 1178 1241 1335 1438 1539 1626 1692 1741 1771 1782 1777 1755 1717 1663 1594 1499 1368 1212 1035 857 686 590 528 448 312 122 -1 -1 -1 -1 -1 -1 -1
-1 -1 -1 -1 -1 -1 -1 -1 -1 -1 46 177 309 421 527 616 690 754 808 849 877 891 896 902 902 899 874 829 778 741 722 727 743 776 798 811 811 803 784 752 701 627 520 372 201 29 -1 -1 -1 -1 -1 -1 -1 -1 -1 -1 -1 -1 -1 -1 -1 -1 -1 -1 -1 -1 -1 -1 -1 -1 -1 -1 -1 -1 13 100 177 237 269 283 277 257 225 189 167 150 231 302 372 426 446 435 400 357 292 322 457 570 685 772 839 886 926 955 977 988 986 984 974 974 968 975 968 982 989 995 992 982 975 960 950 940 925 902 864 807 734 661 627 624 624 606 583 583 605 680 787 899 997 1069 1114 1139 1152 1169 1186 1207 1232 1265 1309 1380 1468 1553 1628 1691 1733 1761 1770 1763 1741 1706 1657 1591 1498 1388 1258 1128 994 871 767 655 516 324 129 -1 -1 -1 -1 -1 -1 -1
-1 -1 -1 -1 -1 -1 -1 -1 -1 -1 41 176 294 408 500 592 667 727 775 808 828 836 841 839 841 827 794 732 662 605 584 593 637 684 725 747 758 761 752 731 696 637 546 419 263 107 8 -1 -1 -1 -1 -1 -1 -1 -1 -1 -1 -1 -1 -1 -1 -1 -1 -1 -1 -1 -1 -1 -1 -1 -1 -1 -1 14 55 123 206 276 325 351 359 352 329 301 258 225 179 194 261 292 299 296 290 263 348 437 541 649 732 791 833 864 886 905 913 909 902 884 880 866 874 867 882 897 916 917 908 898 881 870 866 862 860 845 816 761 682 589 518 498 483 475 447 438 462 547 685 830 956 1060 1136 1192 1226 1249 1273 1302 1329 1364 1403 1452 1516 1583 1643 1692 1727 1745 1750 1742 1723 1693 1651 1589 1516 1426 1331 1229 1118 999 869 716 524 338 116 -1 -1 -1 -1 -1 -1 -1
-1 -1 -1 -1 -1 -1 -1 -1 -1 -1 60 185 300 397 489 564 633 687 726 752 764 776 775 776 767 752 705 625 520 443 413 452 512 579 633 671 693 702 700 691 668 630 565 465 337 209 125 86 59 14 -1 -1 -1 -1 -1 -1 -1 -1 -1 -1 -1 -1 -1 -1 -1 -1 -1 -1 -1 20 61 76 88 98 131 186 258 325 379 416 437 441 434 408 377 332 286 247 204 207 212 221 248 359 446 544 624 689 740 773 791 802 815 824 828 823 804 788 767 769 760 777 790 819 835 835 825 802 779 767 762 771 776 772 746 694 615 515 439 401 408 421 457 450 425 476 592 744 897 1026 1137 1217 1278 1319 1354 1387 1423 1454 1492 1531 1572 1622 1664 1695 1712 1719 1716 1710 1696 1676 1642 1596 1536 1466 1389 1299 1194 1072 923 740 554 350 158 -1 -1 -1 -1 -1 -1 -1
-1 -1 -1 -1 -1 -1 -1 -1 -1 -1 75 191 293 383 460 527 580 624 656 676 695 705 704 693 689 668 628 529 387 270 254 302 383 466 537 586 615 626 628 621 614 598 561 496 406 313 250 203 163 113 50 -1 -1 -1 -1 -1 -1 3 27 54 50 61 50 33 -1 -1 -1 -1 -1 58 123 163 178 198 227 266 330 394 445 483 510 526 523 514 490 459 416 365 324 302 309 329 375 455 540 605 655 690 711 719 716 715 717 731 740 729 716 688 672 657 674 684 712 739 758 755 737 704 674 647 653 663 684 681 657 607 531 456 395 425 457 497 532 544 525 489 551 676 834 990 1118 1225 1303 1367 1415 1458 1496 1530 1564 1598 1631 1660 1682 1689 1684 1671 1664 1657 1656 1648 1628 1594 1547 1490 1422 1341 1239 1114 955 789 601 407 216 30 -1 -1 -1 -1 -1 -1
-1 -1 -1 -1 -1 -1 -1 -1 -1 -1 68 168 257 330 393 446 490 521 553 589 619 628 616 601 589 593 558 456 296 160 119 169 260 363 444 496 523 530 527 520 525 528 525 503 458 407 362 326 280 231 172 114 69 37 31 40 63 91 122 134 152 150 160 141 104 50 0 -1 17 95 181 242 276 298 325 365 409 469 520 555 582 601 607 601 586 558 521 482 449 434 436 453 486 532 581 619 642 650 648 634 620 607 621 641 652 651 628 609 585 585 588 616 645 677 685 683 655 611 562 533 529 560 584 585 558 507 448 390 427 479 539 587 623 644 637 614 592 669 799 954 1101 1214 1316 1391 1453 1506 1553 1590 1621 1650 1672 1688 1688 1669 1634 1607 1586 1586 1598 1604 1595 1572 1536 1490 1431 1356 1260 1136 997 836 652 456 254 52 -1 -1 -1 -1 -1 -1
-1 -1 -1 -1 -1 -1 -1 -1 -1 -1 31 106 162 212 260 306 348 389 441 507 548 548 516 483 494 510 500 414 266 124 62 80 167 270 352 402 420 419 399 393 392 416 447 475 484 479 458 434 401 357 306 252 204 172 159 162 179 200 218 241 244 263 261 263 229 183 125 88 95 155 238 314 367 401 425 461 503 549 593 630 651 666 674 668 653 626 591 552 519 499 493 505 526 552 576 590 593 584 563 539 512 513 522 560 586 584 571 546 538 531 547 567 598 615 631 624 594 530 461 422 434 463 486 491 466 417 364 386 445 520 584 635 675 706 722 722 721 730 817 944 1078 1211 1310 1404 1475 1537 1589 1632 1662 1684 1697 1697 1679 1635 1573 1517 1488 1496 1517 1533 1537 1523 1495 1457 1409 1346 1258 1147 1014 857 672 459 233 8 -1 -1 -1 -1 -1 -1
-1 -1 -1 -1 -1 -1 -1 -1 -1 -1 -1 -1 6 17 60 121 179 271 378 465 504 471 397 365 379 428 449 404 291 160 64 52 104 188 263 306 319 294 267 232 238 276 342 417 484 523 535 526 509 479 437 392 348 315 295 292 299 315 332 344 360 364 381 373 362 321 271 220 205 248 312 387 452 496 529 556 595 632 666 694 711 719 719 708 687 657 619 577 527 485 473 482 504 521 530 535 524 503 477 445 437 429 468 514 545 554 536 520 510 512 521 539 550 570 576 582 555 492 406 358 362 377 398 404 386 354 338 392 463 531 587 630 668 709 752 790 819 845 888 971 1091 1206 1322 1410 1492 1559 1612 1657 1685 1700 1701 1688 1655 1592 1502 1415 1375 1388 1416 1438 1447 1442 1423 1392 1355 1303 1229 1127 993 831 635 408 153 -1 -1 -1 -1 -1 -1 -1
-1 -1 -1 -1 -1 -1 -1 -1 -1 -1 -1 -1 -1 -1 -1 -1 93 241 370 458 474 410 298 229 270 347 406 400 327 215 111 54 68 125 188 223 213 181 129 97 87 147 248 362 465 542 585 602 596 585 558 522 488 456 436 422 424 434 449 464 472 482 484 496 480 460 415 367 338 352 409 470 531 584 620 654 682 711 731 746 755 752 739 716 685 649 609 556 504 437 419 437 444 453 465 463 450 427 395 390 380 416 461 508 540 543 530 512 507 510 520 520 520 511 533 537 531 485 419 356 318 325 326 329 328 317 357 409 471 522 557 584 612 661 728 807 872 926 978 1044 1120 1233 1333 1431 1509 1577 1632 1671 1694 1698 1685 1656 1610 1537 1426 1309 1255 1262 1295 1317 1332 1330 1313 1292 1263 1222 1157 1060 923 748 546 306 64 -1 -1 -1 -1 -1 -1 -1
-1 -1 -1 -1 -1 -1 -1 -1 -1 -1 -1 -1 -1 -1 -1 -1 97 254 381 456 460 376 236 148 181 284 364 392 353 266 160 77 48 78 123 143 126 76 25 -1 -1 68 179 308 431 533 607 649 670 666 662 641 611 591 571 558 553 557 568 583 593 588 596 596 601 583 556 511 474 470 506 559 616 664 707 737 763 778 785 785 778 760 730 689 647 606 558 520 458 464 440 398 382 392 391 390 381 364 347 348 394 437 484 522 542 542 529 517 514 523 527 512 475 467 466 498 505 482 435 379 330 289 284 283 288 332 376 426 471 501 517 524 547 597 683 781 879 963 1037 1106 1180 1262 1359 1450 1529 1594 1644 1678 1689 1677 1645 1599 1539 1461 1350 1214 1133 1133 1162 1185 1191 1181 1162 1142 1124 1088 1033 941 806 629 421 215 -1 -1 -1 -1 -1 -1 -1 -1
-1 -1 -1 -1 -1 -1 -1 -1 -1 -1 -1 -1 -1 -1 -1 -1 128 279 394 458 455 378 244 115 132 216 319 369 359 295 198 102 41 37 61 78 59 6 -1 -1 -1 18 127 256 386 503 601 670 714 738 741 739 723 707 701 690 686 679 691 701 707 705 696 701 707 703 680 646 611 592 608 648 698 745 781 811 827 831 822 803 775 737 691 630 572 528 500 464 500 500 481 437 391 344 335 328 326 324 325 368 412 463 502 528 539 537 529 522 527 538 539 512 456 404 416 443 463 460 435 394 346 303 267 265 299 340 390 433 463 479 481 483 498 544 625 732 846 958 1056 1144 1227 1304 1389 1468 1543 1606 1654 1677 1673 1638 1578 1508 1430 1349 1252 1134 1033 1019 1037 1043 1026 992 957 939 922 900 856 775 656 494 323 150 59 -1 -1 -1 -1 -1 -1 -1
-1 -1 -1 -1 -1 -1 -1 -1 -1 -1 -1 -1 -1 -1 -1 8 164 300 404 463 463 398 277 149 79 157 258 325 338 297 216 116 36 2 15 29 13 -1 -1 -1 -1 -1 83 208 340 465 574 668 737 782 806 816 820 815 813 813 804 806 803 815 817 814 805 801 806 807 795 770 736 710 706 735 776 816 850 869 875 861 833 791 741 686 621 567 491 469 464 507 526 530 504 463 410 358 312 300 303 312 348 388 435 474 503 518 524 526 526 527 536 548 549 521 459 380 365 378 397 413 408 387 357 321 291 285 311 353 391 429 453 464 464 463 473 504 574 673 796 920 1040 1151 1249 1337 1415 1491 1558 1616 1659 1674 1654 1593 1500 1388 1283 1196 1116 1034 955 933 938 908 847 774 718 689 677 669 637 584 492 387 267 213 151 75 -1 -1 -1 -1 -1 -1
-1 -1 -1 -1 -1 -1 -1 -1 -1 -1 -1 -1 -1 -1 -1 48 188 316 410 466 473 422 320 185 68 100 179 257 290 271 207 116 25 -1 -1 -1 -1 -1 -1 -1 -1 -1 59 181 307 431 547 647 740 807 852 883 899 908 908 913 915 911 916 917 921 916 910 902 905 901 896 877 848 816 807 818 851 882 904 913 898 864 814 750 674 607 552 498 521 521 529 541 548 530 498 458 416 373 333 328 333 349 372 411 447 474 489 497 503 511 519 528 541 553 556 535 478 412 338 314 333 348 360 358 348 332 317 314 331 361 395 422 447 458 459 457 460 484 531 626 743 873 1004 1127 1241 1345 1430 1508 1573 1627 1663 1673 1640 1558 1434 1281 1137 1037 992 933 897 886 874 832 723 612 521 468 464 452 438 411 378 333 320 294 252 157 15 -1 -1 -1 -1 -1
-1 -1 -1 -1 -1 -1 -1 -1 -1 -1 -1 -1 -1 -1 -1 77 209 323 413 468 481 446 361 233 115 35 93 164 219 222 177 101 14 -1 -1 -1 -1 -1 -1 -1 -1 -1 79 175 294 413 532 640 731 816 881 930 965 983 992 998 1001 1008 1008 1015 1015 1010 1000 999 992 991 982 969 945 917 897 902 919 938 946 933 896 839 767 682 606 524 509 551 578 595 588 569 542 508 471 437 410 382 375 374 382 391 405 426 448 462 467 471 482 495 507 520 531 545 554 544 508 443 376 316 282 289 300 313 320 323 325 331 344 370 397 422 441 453 455 447 445 456 516 591 703 829 959 1089 1214 1329 1428 1508 1577 1631 1667 1672 1637 1552 1414 1243 1078 978 921 890 872 875 870 825 749 640 508 398 347 337 337 346 359 384 395 378 306 183 21 -1 -1 -1 -1 -1
-1 -1 -1 -1 -1 -1 -1 -1 -1 -1 -1 -1 -1 -1 22 124 227 328 410 464 485 464 397 291 164 58 9 74 136 155 130 73 -1 -1 -1 -1 -1 -1 -1 -1 -1 26 103 207 308 421 536 643 737 817 896 960 1008 1040 1058 1069 1076 1082 1091 1095 1098 1092 1085 1080 1077 1070 1062 1049 1030 1004 983 975 981 983 969 933 869 788 693 621 542 565 592 623 646 642 614 569 517 472 440 420 409 412 414 420 421 425 430 436 441 442 442 445 463 477 489 495 506 520 541 548 527 479 411 348 293 257 251 266 280 294 308 325 344 367 392 415 434 444 441 427 409 438 495 581 671 791 920 1049 1181 1301 1407 1496 1568 1628 1664 1673 1645 1569 1450 1297 1136 1020 946 895 888 908 925 915 867 772 629 479 391 362 381 410 449 476 473 415 300 143 -1 -1 -1 -1 -1 -1
-1 -1 -1 -1 -1 -1 -1 -1 -1 -1 -1 -1 -1 -1 84 168 254 335 406 459 483 475 429 344 234 107 2 10 46 71 67 30 -1 -1 -1 -1 -1 -1 -1 -1 23 81 158 245 350 455 557 658 747 830 907 976 1033 1076 1105 1124 1136 1147 1155 1163 1163 1161 1155 1149 1145 1140 1131 1120 1100 1077 1054 1039 1029 1012 973 907 820 719 632 566 615 652 690 704 697 668 617 547 482 439 422 423 433 444 453 453 448 443 438 433 425 418 413 433 445 456 457 455 462 485 521 544 538 500 443 381 322 278 248 230 240 256 277 298 321 344 369 395 414 421 416 395 381 411 480 563 666 767 890 1019 1145 1266 1375 1471 1551 1614 1657 1674 1658 1602 1510 1384 1247 1119 1011 940 936 979 1018 1037 1012 939 818 668 545 506 514 555 578 573 514 399 236 48 -1 -1 -1 -1 -1 -1
-1 -1 -1 -1 -1 -1 -1 -1 -1 -1 -1 -1 -1 30 120 200 275 344 403 449 477 480 451 389 296 178 67 -1 -1 -1 -1 -1 -1 -1 -1 -1 -1 -1 14 52 86 142 213 299 391 488 584 674 764 845 915 985 1044 1096 1135 1162 1181 1193 1204 1210 1214 1212 1207 1203 1198 1193 1187 1175 1158 1134 1109 1087 1063 1022 954 862 752 668 598 658 703 751 769 764 730 672 598 521 454 430 429 446 465 479 481 476 465 451 437 423 403 383 397 415 424 418 408 404 412 454 503 537 542 514 465 404 348 296 258 233 212 224 238 260 279 301 331 362 380 393 385 365 359 392 458 550 650 765 877 1000 1121 1234 1344 1439 1525 1590 1641 1669 1669 1637 1571 1474 1354 1219 1091 1010 1023 1075 1131 1158 1156 1106 1008 876 743 675 692 701 696 636 520 348 147 -1 -1 -1 -1 -1 -1 -1
-1 -1 -1 -1 -1 -1 -1 -1 -1 -1 -1 -1 -1 48 133 215 285 348 399 440 467 476 460 416 346 251 137 33 -1 -1 -1 -1 -1 -1 -1 -1 -1 -1 41 94 143 189 256 335 421 512 599 688 772 852 926 987 1050 1104 1148 1183 1206 1222 1232 1239 1241 1241 1239 1235 1232 1230 1225 1218 1202 1178 1151 1123 1081 1015 924 803 710 637 700 753 809 832 832 799 739 655 569 489 463 451 466 483 496 504 499 487 472 454 435 411 389 357 372 384 390 374 357 352 388 440 494 536 548 526 479 419 353 298 254 225 212 202 212 231 241 263 301 324 356 370 365 348 349 374 438 522 631 750 878 993 1109 1220 1318 1411 1492 1562 1619 1658 1676 1667 1625 1551 1445 1313 1184 1107 1133 1196 1246 1280 1282 1244 1162 1035 905 850 834 831 779 679 519 320 103 -1 -1 -1 -1 -1 -1 -1
-1 -1 -1 -1 -1 -1 -1 -1 -1 -1 -1 -1 -1 63 143 218 284 340 387 424 448 459 452 427 378 307 215 116 35 -1 -1 -1 -1 -1 -1 -1 -1 -1 32 98 152 205 264 341 426 513 601 685 767 846 920 991 1051 1106 1151 1187 1214 1230 1240 1244 1246 1245 1244 1243 1245 1246 1247 1242 1231 1211 1184 1145 1086 999 884 784 691 734 791 858 892 899 868 803 713 621 531 504 489 503 513 520 519 512 498 482 466 450 434 412 378 359 333 347 346 330 311 329 382 440 498 539 554 537 490 423 353 284 240 221 209 219 225 229 249 274 291 325 348 368 365 356 348 368 413 497 601 729 861 992 1111 1213 1310 1388 1466 1536 1595 1643 1676 1683 1663 1607 1516 1398 1284 1230 1257 1315 1362 1385 1383 1339 1259 1138 1033 983 967 924 845 716 546 341 134 -1 -1 -1 -1 -1 -1 -1
-1 -1 -1 -1 -1 -1 -1 -1 -1 -1 -1 -1 -1 74 151 216 275 325 365 397 418 429 428 417 390 342 278 206 125 31 -1 -1 -1 -1 -1 -1 -1 -1 -1 50 112 169 234 311 399 491 581 668 748 827 905 980 1044 1098 1143 1178 1202 1218 1224 1226 1225 1222 1220 1224 1232 1241 1249 1252 1247 1232 1207 1162 1091 988 887 782 783 823 891 938 956 938 876 779 660 573 553 540 549 554 553 540 518 495 473 455 444 436 425 408 386 352 315 311 302 294 290 326 381 447 502 544 560 546 498 430 348 284 235 223 236 249 263 275 293 313 332 350 369 383 388 380 370 367 403 468 573 695 831 971 1097 1206 1292 1370 1439 1504 1565 1619 1661 1684 1680 1645 1572 1478 1393 1366 1383 1424 1462 1472 1453 1398 1305 1213 1127 1099 1065 1001 899 759 584 385 172 -1 -1 -1 -1 -1 -1 -1
-1 -1 -1 -1 -1 -1 -1 -1 -1 -1 -1 -1 -1 80 149 211 260 302 336 361 378 386 390 388 378 353 314 260 190 102 5 -1 -1 -1 -1 -1 -1 -1 -1 -1 37 96 167 251 345 447 540 631 714 791 870 948 1016 1074 1121 1154 1175 1184 1188 1185 1179 1172 1172 1179 1195 1215 1233 1246 1250 1244 1222 1179 1108 1017 922 875 886 931 976 1003 998 951 868 745 647 605 599 605 603 593 568 530 485 450 422 405 401 400 400 392 373 342 314 282 275 267 288 326 380 441 502 545 566 553 510 439 364 295 266 268 280 295 309 326 340 357 370 383 395 408 417 416 407 393 395 447 535 652 787 927 1061 1170 1257 1326 1389 1450 1511 1572 1624 1663 1681 1667 1620 1552 1500 1485 1499 1523 1541 1535 1497 1428 1343 1260 1223 1189 1140 1055 933 780 596 387 165 -1 -1 -1 -1 -1 -1 -1
-1 -1 -1 -1 -1 -1 -1 -1 -1 -1 -1 -1 0 73 140 194 236 269 297 317 329 335 337 342 343 338 317 280 224 152 66 -1 -1 -1 1 15 8 -1 -1 -1 -1 23 90 180 284 382 478 566 645 722 803 885 962 1028 1079 1112 1128 1132 1131 1123 1111 1103 1100 1116 1143 1174 1203 1226 1241 1243 1230 1195 1141 1067 1004 982 995 1024 1049 1053 1021 957 857 775 712 684 672 663 642 605 552 485 422 375 345 334 332 343 352 354 342 324 302 284 264 264 290 326 378 437 493 541 566 562 523 461 389 344 326 326 333 344 352 364 373 380 387 393 404 421 438 451 451 442 425 433 501 600 734 874 1003 1108 1180 1236 1290 1346 1412 1483 1555 1620 1664 1677 1658 1622 1593 1587 1593 1603 1604 1580 1529 1458 1388 1332 1296 1252 1180 1070 923 744 542 317 75 -1 -1 -1 -1 -1 -1 -1
-1 -1 -1 -1 -1 -1 -1 -1 -1 -1 -1 -1 -1 59 117 163 200 228 252 268 273 272 273 278 294 302 296 273 235 179 115 58 43 61 87 106 102 89 59 29 7 -1 41 125 214 308 390 464 531 605 691 785 878 958 1015 1050 1062 1061 1051 1037 1017 1004 1019 1047 1091 1132 1168 1197 1217 1227 1225 1208 1173 1128 1093 1078 1086 1102 1107 1089 1041 963 904 844 801 766 737 701 652 586 503 417 339 284 260 248 254 271 287 296 294 285 285 284 282 285 287 324 368 421 478 526 560 566 541 488 439 409 394 386 384 383 382 381 380 378 376 378 390 412 446 474 492 493 480 470 477 563 674 811 932 1019 1067 1100 1131 1184 1259 1354 1458 1558 1629 1672 1684 1679 1669 1664 1666 1664 1651 1616 1562 1498 1443 1394 1341 1273 1168 1020 831 620 400 164 -1 -1 -1 -1 -1 -1 -1 -1
-1 -1 -1 -1 -1 -1 -1 -1 -1 -1 -1 -1 -1 30 78 117 148 177 201 214 211 200 194 209 231 250 254 245 222 189 148 118 119 141 170 191 194 179 160 126 90 68 70 90 156 222 283 336 382 450 542 656 773 868 931 965 976 965 950 923 900 897 943 1009 1063 1105 1136 1160 1178 1193 1204 1205 1196 1178 1161 1157 1157 1161 1152 1122 1066 1011 962 920 873 826 776 715 634 539 431 333 272 222 210 208 208 208 225 228 227 240 254 281 303 309 314 312 351 396 449 501 543 565 557 527 494 471 455 440 423 407 389 376 367 360 354 357 366 400 437 480 516 539 543 531 523 530 630 739 847 909 938 931 949 992 1087 1217 1361 1487 1587 1656 1698 1716 1721 1724 1718 1710 1688 1648 1595 1540 1483 1420 1343 1237 1091 890 638 382 163 -1 -1 -1 -1 -1 -1 -1 -1 -1
-1 -1 -1 -1 -1 -1 -1 -1 -1 -1 -1 -1 -1 -1 17 49 82 120 154 163 148 120 118 132 160 184 199 198 192 183 172 166 178 203 233 255 263 258 240 218 187 155 129 119 118 154 189 213 240 284 377 507 647 748 814 849 854 844 814 784 772 830 913 990 1046 1082 1102 1115 1126 1140 1161 1183 1200 1207 1210 1210 1211 1206 1189 1154 1111 1065 1022 973 919 854 783 694 588 471 367 274 246 259 262 266 257 236 195 176 183 189 230 276 316 337 338 335 326 364 409 465 517 555 568 558 542 524 504 480 450 418 384 361 347 348 360 364 373 382 420 472 527 570 598 603 588 581 590 681 752 801 800 802 792 842 954 1118 1283 1430 1549 1639 1699 1736 1756 1763 1759 1744 1718 1676 1628 1571 1496 1406 1290 1142 940 687 392 99 -1 -1 -1 -1 -1 -1 -1 -1 -1 -1
-1 -1 -1 -1 -1 -1 -1 -1 -1 -1 -1 -1 -1 -1 -1 -1 18 80 124 136 103 57 45 59 88 115 130 140 152 167 183 198 216 243 271 292 303 305 297 281 261 233 200 169 144 134 140 145 151 176 236 366 486 587 653 690 695 673 642 641 698 809 907 981 1028 1052 1062 1063 1062 1073 1104 1148 1186 1216 1235 1245 1247 1240 1221 1189 1153 1112 1064 1007 935 854 753 639 518 410 315 317 324 340 354 350 329 288 238 193 152 169 210 271 321 356 370 361 347 336 372 423 485 533 564 578 575 564 540 506 465 421 381 348 345 360 380 393 393 392 413 467 527 590 638 666 668 651 644 640 691 707 721 715 729 782 911 1070 1236 1393 1521 1622 1697 1746 1776 1789 1787 1772 1742 1702 1651 1579 1487 1355 1198 993 758 474 214 47 -1 -1 -1 -1 -1 -1 -1 -1 -1 -1
-1 -1 -1 -1 -1 -1 -1 -1 -1 -1 -1 -1 -1 -1 -1 -1 -1 73 123 130 93 28 -1 4 18 41 61 79 114 154 184 207 231 257 282 300 309 311 308 302 293 280 259 232 204 176 163 159 162 167 202 249 338 404 469 501 500 465 494 557 706 819 912 977 1011 1022 1019 1010 1004 1010 1052 1108 1163 1210 1246 1266 1273 1267 1249 1222 1187 1142 1088 1015 931 820 680 545 440 356 377 398 421 431 429 412 378 331 272 210 168 150 205 265 327 372 398 398 383 368 351 393 440 497 545 578 593 587 560 519 468 419 377 355 349 375 402 422 425 429 438 474 536 605 669 716 740 742 724 707 684 696 707 723 750 818 924 1077 1234 1379 1507 1611 1690 1750 1786 1806 1809 1793 1763 1719 1659 1579 1456 1301 1097 873 630 429 337 248 203 171 124 20 -1 -1 -1 -1 -1 -1
-1 -1 -1 -1 -1 -1 -1 -1 -1 -1 -1 -1 -1 -1 -1 -1 8 89 133 137 99 41 -1 -1 -1 -1 5 46 97 140 174 201 227 253 273 282 283 281 277 273 273 278 282 281 271 257 244 249 250 254 255 272 272 296 317 362 351 379 451 617 745 863 936 981 1000 998 982 967 960 978 1017 1076 1139 1200 1246 1277 1289 1286 1271 1243 1205 1156 1089 1002 891 746 584 428 378 429 457 490 501 496 473 439 391 334 270 212 158 168 204 268 328 386 422 437 432 410 386 361 398 450 512 564 593 594 568 520 464 410 377 365 371 378 414 439 456 463 479 505 560 626 695 758 800 822 824 803 782 774 785 811 857 919 1010 1126 1267 1401 1518 1610 1689 1748 1792 1817 1824 1810 1777 1727 1662 1566 1451 1274 1075 860 720 633 567 512 443 362 251 108 -1 -1 -1 -1 -1 -1
-1 -1 -1 -1 -1 -1 -1 -1 -1 -1 -1 -1 -1 -1 -1 -1 42 106 141 140 110 58 5 -1 -1 -1 -1 38 83 122 155 184 215 237 248 246 238 224 212 202 203 222 252 290 322 343 352 364 384 388 390 374 373 353 351 345 404 469 584 716 834 917 974 999 1000 984 960 944 940 963 1005 1063 1129 1192 1245 1282 1299 1298 1281 1251 1207 1146 1064 955 814 661 486 421 468 514 552 560 552 524 480 426 365 299 245 191 194 200 233 282 342 395 445 470 477 463 426 384 362 407 473 538 581 590 565 517 453 403 372 374 388 409 409 443 465 486 508 540 588 652 723 792 850 890 910 913 908 906 920 952 1004 1067 1135 1224 1328 1441 1541 1626 1691 1751 1796 1825 1835 1822 1789 1735 1661 1577 1456 1322 1150 1006 914 855 788 706 601 472 317 136 -1 -1 -1 -1 -1 -1
-1 -1 -1 -1 -1 -1 -1 -1 -1 -1 -1 -1 -1 -1 -1 5 69 115 138 137 112 69 18 -1 -1 -1 -1 25 59 93 128 169 198 217 216 202 179 157 132 117 112 135 191 264 338 397 444 479 514 539 539 540 522 518 503 515 552 627 730 836 921 980 1013 1021 1003 977 952 937 938 956 999 1059 1128 1192 1244 1283 1302 1302 1282 1246 1192 1117 1009 878 742 582 539 545 578 613 615 601 566 514 450 376 309 256 213 230 242 261 282 312 364 417 463 501 517 511 476 422 386 376 438 511 564 581 560 508 450 394 368 374 404 427 439 427 457 481 514 557 608 673 747 820 887 937 976 1002 1018 1036 1056 1096 1146 1204 1266 1330 1407 1490 1571 1643 1702 1751 1798 1830 1841 1829 1796 1742 1677 1591 1499 1390 1273 1166 1085 1013 926 808 661 488 296 95 -1 -1 -1 -1 -1 -1
-1 -1 -1 -1 -1 -1 -1 -1 -1 -1 -1 -1 -1 -1 -1 38 79 108 122 121 103 70 23 -1 -1 -1 -1 -1 21 62 112 152 182 191 181 152 120 90 64 44 39 64 134 226 322 412 492 561 620 664 687 686 689 681 681 695 722 776 849 930 995 1035 1050 1037 1005 966 950 949 955 965 999 1062 1129 1196 1248 1285 1302 1300 1276 1233 1167 1077 956 818 683 649 649 662 676 668 639 595 541 474 394 319 251 236 263 283 309 326 339 360 395 444 489 527 551 552 527 476 419 384 422 494 552 574 556 509 446 395 365 376 408 446 457 449 428 457 501 552 614 682 755 832 901 961 1010 1051 1089 1123 1160 1203 1252 1307 1361 1416 1474 1533 1595 1650 1705 1755 1796 1829 1843 1834 1800 1754 1691 1616 1533 1444 1350 1261 1177 1087 972 819 630 413 192 -1 -1 -1 -1 -1 -1 -1
-1 -1 -1 -1 -1 -1 -1 -1 -1 -1 -1 -1 -1 -1 8 34 57 75 87 92 87 63 25 -1 -1 -1 -1 -1 -1 42 90 131 155 158 141 104 67 38 22 2 4 37 98 194 303 410 507 602 684 751 794 816 821 827 826 840 863 903 950 1004 1053 1080 1077 1049 1002 976 971 978 986 1001 1023 1070 1139 1201 1253 1288 1302 1295 1265 1215 1145 1052 939 818 751 746 751 746 720 674 611 541 473 404 340 275 289 303 327 354 369 381 393 406 430 465 509 548 577 589 573 528 468 419 432 496 549 572 557 510 452 396 369 385 422 456 478 467 437 442 486 542 602 672 744 817 886 948 1003 1055 1103 1154 1205 1254 1304 1355 1407 1454 1501 1547 1593 1643 1694 1747 1792 1824 1842 1835 1808 1761 1698 1622 1536 1444 1351 1261 1168 1062 924 745 519 264 26 -1 -1 -1 -1 -1 -1 -1
-1 -1 -1 -1 -1 -1 -1 -1 -1 -1 -1 -1 -1 -1 -1 -1 -1 15 34 61 72 59 28 -1 -1 -1 -1 -1 -1 13 57 92 111 115 96 62 27 10 -1 -1 1 35 99 187 292 405 516 617 719 805 866 906 931 939 947 953 977 1002 1041 1071 1105 1117 1104 1061 1031 1013 1011 1022 1036 1051 1075 1107 1155 1215 1260 1291 1301 1289 1255 1205 1138 1056 966 889 848 827 811 773 713 633 535 441 377 335 294 330 357 388 404 412 419 423 427 435 451 478 515 558 594 613 608 576 525 483 472 509 556 576 557 508 445 398 376 402 446 483 500 497 477 464 488 532 590 648 714 776 835 892 946 1001 1063 1124 1182 1237 1289 1340 1388 1430 1463 1503 1548 1603 1666 1727 1780 1819 1839 1837 1810 1762 1692 1597 1488 1366 1246 1132 1030 921 783 592 347 88 -1 -1 -1 -1 -1 -1 -1 -1
-1 -1 -1 -1 -1 -1 -1 -1 -1 -1 -1 -1 -1 -1 -1 -1 -1 -1 -1 35 61 61 39 7 -1 -1 -1 -1 -1 -1 7 39 60 68 57 29 11 1 -1 -1 20 62 128 209 311 418 524 635 739 836 915 971 1009 1031 1037 1053 1064 1092 1115 1141 1153 1158 1132 1107 1083 1073 1073 1082 1097 1115 1134 1160 1194 1231 1271 1292 1297 1284 1254 1208 1148 1076 1004 942 892 852 808 746 661 556 452 348 313 308 358 396 438 458 461 456 446 439 434 435 444 467 505 551 594 623 632 616 584 552 535 543 573 579 551 494 431 383 394 429 474 515 533 536 524 514 512 542 578 629 676 719 759 800 848 905 969 1036 1094 1148 1202 1255 1299 1334 1360 1394 1454 1538 1624 1700 1765 1812 1837 1836 1807 1754 1664 1547 1386 1208 1018 856 743 657 553 373 169 -1 -1 -1 -1 -1 -1 -1 -1 -1
-1 -1 -1 -1 -1 -1 -1 -1 -1 -1 -1 -1 -1 -1 -1 -1 -1 -1 -1 20 58 67 52 20 -1 -1 -1 -1 -1 -1 -1 -1 18 35 37 29 26 31 35 33 49 99 166 251 349 450 551 654 757 858 947 1018 1068 1099 1120 1127 1145 1160 1184 1199 1208 1199 1183 1162 1149 1142 1145 1151 1163 1178 1194 1211 1234 1259 1276 1287 1285 1272 1248 1211 1158 1094 1020 942 866 799 737 668 577 483 382 380 377 399 437 478 500 504 493 472 448 429 416 410 414 439 479 527 577 618 642 648 635 615 598 593 598 587 543 477 407 378 400 452 502 542 569 577 576 567 564 570 592 618 645 663 676 693 728 779 842 902 956 1006 1059 1115 1160 1179 1204 1239 1344 1471 1585 1679 1752 1806 1834 1833 1802 1735 1638 1479 1279 1028 753 524 371 339 266 168 8 -1 -1 -1 -1 -1 -1 -1 -1 -1
-1 -1 -1 -1 -1 -1 -1 -1 -1 -1 -1 -1 -1 -1 -1 -1 -1 -1 -1 18 62 75 63 28 -1 -1 -1 -1 -1 -1 -1 -1 -1 30 44 55 65 83 97 101 104 139 211 298 393 494 590 684 781 878 970 1048 1110 1151 1178 1195 1205 1223 1241 1255 1259 1251 1236 1226 1215 1213 1214 1221 1228 1236 1246 1257 1265 1274 1276 1270 1258 1250 1234 1206 1162 1099 1016 912 800 695 618 558 500 425 451 466 488 504 522 535 537 523 496 460 425 398 386 378 383 408 445 494 549 600 640 665 672 665 651 643 630 603 542 466 404 377 410 464 520 565 598 618 623 626 620 620 623 629 625 615 601 595 611 653 709 763 809 842 897 955 994 1018 1021 1111 1254 1413 1552 1663 1747 1802 1832 1829 1794 1724 1604 1441 1207 925 640 380 212 121 77 36 63 27 -1 -1 -1 -1 -1 -1 -1 -1
-1 -1 -1 -1 -1 -1 -1 -1 -1 -1 -1 -1 -1 -1 -1 -1 -1 -1 -1 31 71 85 72 32 -1 -1 -1 -1 -1 -1 -1 -1 4 37 66 87 115 143 169 181 190 203 256 344 438 536 636 727 813 900 987 1069 1136 1188 1223 1245 1261 1274 1292 1304 1305 1299 1290 1280 1276 1274 1274 1277 1283 1285 1288 1289 1286 1275 1255 1232 1213 1208 1205 1191 1156 1097 1010 898 767 634 539 489 467 511 542 574 582 582 575 563 540 513 475 434 389 372 367 374 386 397 418 462 513 572 626 665 690 698 696 685 669 628 560 485 419 392 419 468 522 573 617 646 669 677 681 676 670 654 624 582 546 532 540 573 616 678 698 739 782 834 863 869 923 1035 1200 1369 1525 1649 1741 1800 1829 1825 1788 1714 1601 1429 1213 984 729 495 315 209 154 156 152 110 7 -1 -1 -1 -1 -1 -1 -1
-1 -1 -1 -1 -1 -1 -1 -1 -1 -1 -1 -1 -1 -1 -1 -1 -1 -1 12 55 87 95 80 45 -1 -1 -1 -1 -1 -1 -1 -1 -1 32 71 114 155 199 236 265 281 299 331 393 483 578 673 767 851 929 1009 1083 1154 1212 1255 1283 1302 1319 1332 1341 1343 1338 1330 1326 1324 1320 1318 1319 1320 1320 1315 1309 1292 1261 1216 1168 1144 1145 1159 1161 1142 1094 1020 918 798 675 591 572 589 613 647 658 649 626 594 555 514 476 443 404 389 374 380 398 415 429 439 448 484 541 598 652 693 716 727 725 706 664 605 535 476 443 425 460 504 558 610 656 690 717 729 732 721 692 641 579 528 507 529 573 623 654 720 755 783 790 796 813 874 1011 1185 1354 1507 1640 1734 1798 1827 1823 1786 1720 1613 1470 1303 1115 906 709 552 433 362 310 247 143 -1 -1 -1 -1 -1 -1 -1 -1
-1 -1 -1 -1 -1 -1 -1 -1 -1 -1 -1 -1 -1 -1 -1 -1 -1 6 54 83 100 105 92 64 22 -1 -1 -1 -1 -1 -1 -1 -1 -1 47 111 177 236 288 332 370 393 423 468 539 624 712 800 884 962 1032 1104 1169 1229 1275 1308 1330 1345 1357 1363 1364 1360 1355 1351 1348 1344 1341 1339 1337 1333 1327 1313 1286 1239 1166 1083 1044 1054 1083 1109 1112 1087 1035 960 866 775 720 711 716 727 726 714 684 640 586 527 477 436 422 420 405 405 416 437 463 480 487 493 494 526 577 638 688 727 748 756 745 711 664 613 562 514 479 450 476 519 575 634 685 727 760 774 767 735 678 603 537 514 543 601 663 731 792 844 858 848 825 826 880 1016 1187 1364 1514 1635 1734 1797 1827 1825 1792 1731 1639 1523 1386 1235 1070 907 763 639 527 415 278 111 -1 -1 -1 -1 -1 -1 -1 -1
-1 -1 -1 -1 -1 -1 -1 -1 -1 -1 -1 -1 -1 -1 -1 -1 19 53 81 101 109 108 101 85 58 26 -1 -1 -1 -1 -1 -1 -1 -1 3 83 170 250 321 379 434 478 515 556 610 683 761 836 916 991 1061 1124 1186 1240 1287 1319 1340 1354 1361 1364 1364 1360 1356 1352 1347 1342 1337 1334 1330 1324 1315 1300 1270 1216 1127 1009 923 926 973 1029 1062 1063 1039 992 932 875 836 816 809 795 772 738 689 628 560 500 455 456 460 457 449 449 464 491 515 541 554 556 556 559 594 639 694 735 765 779 779 760 731 694 651 599 548 508 471 477 529 584 646 706 757 790 797 777 724 649 578 540 560 615 695 786 869 931 965 959 932 909 944 1045 1214 1376 1525 1647 1735 1799 1830 1829 1799 1742 1662 1560 1450 1324 1187 1045 904 761 606 435 236 44 -1 -1 -1 -1 -1 -1 -1 -1
-1 -1 -1 -1 -1 -1 -1 -1 -1 -1 -1 -1 -1 -1 19 44 64 82 94 100 101 98 96 96 89 71 47 22 1 -1 -1 -1 -1 -1 -1 53 145 244 333 409 472 538 589 637 685 744 812 880 947 1020 1086 1144 1199 1248 1287 1315 1333 1342 1345 1344 1342 1336 1331 1326 1319 1311 1306 1301 1299 1294 1286 1272 1247 1197 1115 990 840 779 843 928 983 1016 1019 1004 974 940 908 879 852 820 779 729 669 596 533 484 500 511 518 514 503 500 515 543 573 598 618 625 623 629 639 671 711 751 780 798 805 801 787 762 727 681 636 588 547 513 494 528 583 651 721 770 800 801 770 711 648 603 579 620 690 793 898 988 1050 1079 1075 1056 1063 1136 1255 1404 1542 1654 1744 1804 1833 1834 1805 1752 1677 1594 1493 1385 1260 1121 968 789 595 372 162 -1 -1 -1 -1 -1 -1 -1 -1 -1
-1 -1 -1 -1 -1 -1 -1 -1 -1 -1 -1 -1 -1 28 65 86 93 90 87 79 73 71 77 97 110 108 97 79 57 23 -1 -1 -1 -1 -1 41 130 229 330 422 502 572 641 698 752 806 864 924 986 1045 1102 1157 1203 1243 1273 1292 1305 1308 1307 1301 1298 1291 1285 1276 1266 1259 1250 1249 1246 1241 1240 1232 1218 1183 1114 1004 851 698 727 792 875 933 971 984 981 964 936 900 857 806 749 692 626 566 512 533 555 575 578 568 556 554 566 592 624 652 670 684 690 690 697 713 740 770 796 814 825 829 825 811 785 752 720 681 638 590 550 512 525 590 652 714 764 799 805 782 733 685 647 620 671 757 877 995 1093 1162 1198 1208 1215 1253 1338 1446 1560 1667 1748 1807 1837 1838 1812 1762 1694 1612 1524 1416 1289 1135 950 737 498 288 73 40 -1 -1 -1 -1 -1 -1 -1 -1
-1 -1 -1 -1 -1 -1 -1 -1 -1 -1 -1 -1 -1 48 91 110 106 86 59 41 29 30 60 91 117 134 137 131 109 66 5 -1 -1 -1 -1 54 136 233 328 431 520 601 673 743 799 854 907 962 1015 1066 1110 1154 1193 1221 1240 1252 1256 1256 1246 1240 1231 1227 1219 1207 1196 1184 1181 1174 1175 1179 1180 1182 1178 1159 1114 1026 896 751 604 659 726 814 879 927 952 953 934 894 836 768 702 640 589 543 564 587 613 623 620 608 597 597 610 632 662 691 711 724 733 737 741 751 766 785 805 821 834 841 842 837 821 803 781 754 719 676 628 586 558 542 586 636 701 767 818 836 818 779 729 676 642 709 820 958 1085 1188 1268 1319 1349 1376 1425 1503 1594 1677 1754 1809 1837 1838 1813 1765 1701 1622 1525 1409 1262 1077 851 613 392 194 192 161 113 9 -1 -1 -1 -1 -1 -1
-1 -1 -1 -1 -1 -1 -1 -1 -1 -1 -1 -1 -1 57 105 121 105 66 22 -1 -1 8 41 79 116 145 165 171 154 107 28 -1 -1 -1 2 74 160 248 348 442 538 622 700 770 834 886 937 985 1029 1067 1102 1133 1161 1180 1189 1188 1190 1181 1169 1156 1151 1144 1133 1121 1103 1099 1086 1088 1091 1100 1110 1119 1123 1120 1097 1042 948 805 661 519 580 650 746 829 891 922 916 880 818 740 667 613 582 601 619 643 652 649 635 621 614 617 632 654 680 708 728 742 750 756 761 766 774 785 800 814 826 834 838 838 832 822 809 792 769 737 700 662 619 582 550 578 646 732 810 868 888 870 822 752 673 662 761 887 1037 1171 1284 1373 1433 1475 1509 1565 1634 1704 1765 1812 1837 1835 1808 1759 1692 1602 1490 1347 1169 955 712 473 315 334 328 298 196 47 -1 -1 -1 -1 -1 -1
-1 -1 -1 -1 -1 -1 -1 -1 -1 -1 -1 -1 5 73 115 125 96 43 -1 -1 -1 -1 22 62 103 146 180 198 190 143 61 -1 -1 -1 12 95 178 276 371 466 557 643 720 791 853 905 947 985 1016 1044 1069 1091 1109 1118 1116 1108 1101 1085 1068 1060 1054 1046 1034 1013 1007 988 991 984 997 1011 1028 1041 1052 1066 1061 1033 971 870 719 570 434 489 580 708 814 878 895 871 816 752 693 659 653 661 677 679 669 646 617 600 594 602 619 643 671 695 714 728 738 745 748 752 755 763 775 788 798 808 814 816 814 809 802 792 778 761 738 711 675 630 594 581 621 705 799 879 937 951 921 854 767 703 711 829 968 1128 1267 1381 1472 1534 1582 1622 1677 1734 1784 1821 1839 1832 1797 1745 1664 1564 1427 1253 1048 821 616 469 482 485 468 379 230 35 -1 -1 -1 -1 -1 -1
-1 -1 -1 -1 -1 -1 -1 -1 -1 -1 -1 -1 30 94 130 132 95 34 -1 -1 -1 -1 4 32 80 135 185 217 219 180 103 19 -1 -1 14 98 202 298 398 489 578 662 738 804 859 903 935 959 978 997 1012 1027 1037 1037 1026 1014 994 971 954 951 944 935 914 906 882 884 872 881 887 912 934 947 974 995 1008 1004 970 898 782 616 454 355 443 602 740 834 875 870 835 789 752 728 717 714 707 689 659 615 571 543 541 551 570 599 625 650 669 685 697 703 707 705 710 718 728 743 754 765 773 774 772 765 762 756 752 746 736 721 699 668 638 620 632 691 785 885 964 1013 1015 973 903 823 764 788 922 1071 1231 1368 1475 1563 1624 1675 1720 1767 1806 1833 1842 1828 1791 1725 1638 1518 1365 1181 981 814 699 675 656 632 547 405 212 -1 -1 -1 -1 -1 -1 -1
-1 -1 -1 -1 -1 -1 -1 -1 -1 -1 -1 -1 46 114 152 154 117 65 26 23 16 -1 -1 5 54 121 182 230 245 222 166 102 39 -1 19 106 212 321 422 516 601 679 750 807 850 878 896 907 920 929 936 946 948 938 925 898 871 842 839 825 824 808 799 771 771 752 759 758 781 803 825 853 874 910 940 955 943 893 800 660 481 326 373 509 672 792 856 873 857 827 799 772 750 728 702 670 625 565 502 469 457 474 500 526 555 577 603 622 633 637 634 639 644 652 671 685 699 708 716 716 709 702 697 695 698 698 700 694 680 661 638 629 642 690 776 878 975 1049 1087 1082 1040 971 896 853 903 1045 1195 1344 1472 1565 1647 1709 1757 1794 1825 1844 1844 1825 1783 1717 1620 1499 1346 1184 1051 951 891 851 802 710 569 382 170 -1 -1 -1 -1 -1 -1 -1
-1 -1 -1 -1 -1 -1 -1 -1 -1 -1 -1 -1 45 124 175 185 162 121 91 72 62 27 -1 -1 36 104 175 234 271 273 248 202 144 94 71 122 223 336 446 542 626 695 752 796 820 832 832 839 842 839 849 848 844 832 802 769 734 722 699 701 684 681 657 653 628 630 629 647 659 686 717 736 775 818 860 889 891 857 779 659 496 352 295 438 612 753 836 870 868 848 817 782 741 701 659 620 570 506 445 398 389 403 421 448 473 504 528 545 555 550 554 553 563 583 601 619 633 642 645 641 631 619 615 620 625 635 637 633 618 597 575 572 608 681 764 864 965 1060 1127 1160 1153 1113 1053 1000 982 1052 1194 1343 1466 1576 1661 1729 1782 1818 1840 1849 1841 1815 1771 1706 1620 1507 1387 1271 1173 1099 1034 964 866 726 545 338 125 -1 -1 -1 -1 -1 -1 -1
-1 -1 -1 -1 -1 -1 -1 -1 -1 -1 -1 -1 22 120 189 222 219 194 162 139 109 74 23 -1 23 87 163 235 289 322 325 305 261 210 177 178 249 356 467 567 645 705 747 767 770 757 755 748 742 745 739 744 732 708 671 628 604 574 573 554 554 533 531 508 504 494 512 525 538 559 590 633 667 723 774 811 820 794 724 614 472 329 270 381 576 724 819 862 868 849 814 764 706 636 590 542 500 458 414 413 404 380 372 382 402 429 451 467 467 468 461 471 488 505 532 551 563 568 563 556 538 523 522 534 549 560 563 548 526 491 466 473 545 643 748 843 949 1049 1139 1202 1235 1229 1201 1158 1133 1146 1236 1361 1489 1594 1679 1745 1795 1830 1846 1844 1826 1793 1746 1685 1609 1525 1435 1346 1264 1181 1096 988 853 688 496 291 101 -1 -1 -1 -1 -1 -1 -1
-1 -1 -1 -1 -1 -1 -1 -1 -1 -1 -1 -1 -1 94 186 247 271 264 240 208 177 137 89 55 29 71 141 225 297 355 389 392 369 332 292 282 310 392 495 587 659 705 723 718 693 671 649 636 633 627 637 626 608 574 530 491 449 443 425 432 410 401 388 377 364 379 395 390 406 432 480 517 575 635 692 729 737 707 638 528 398 293 265 402 566 713 802 847 856 840 804 744 666 588 510 486 447 441 468 474 463 437 399 359 355 367 384 390 393 385 389 399 418 443 465 483 491 487 480 454 438 421 435 451 474 488 480 459 423 383 353 388 478 596 711 824 925 1032 1131 1218 1282 1313 1314 1305 1285 1292 1333 1420 1525 1624 1703 1764 1808 1836 1841 1823 1790 1745 1696 1637 1568 1499 1427 1351 1263 1168 1055 925 777 610 432 255 72 -1 -1 -1 -1 -1 -1 -1
-1 -1 -1 -1 -1 -1 -1 -1 -1 -1 -1 -1 -1 45 158 249 304 325 314 288 256 220 178 132 98 71 123 198 288 366 427 459 464 444 415 395 409 457 534 613 667 688 677 643 600 558 528 508 502 518 516 506 475 435 387 336 321 297 311 300 283 275 259 247 249 268 259 277 269 327 374 431 494 560 615 647 644 608 527 413 306 238 323 448 594 705 784 824 836 829 797 742 664 572 524 478 493 512 539 550 537 504 455 402 352 335 337 337 332 335 333 347 370 395 410 419 416 410 383 357 328 336 347 386 413 420 409 378 340 299 288 327 421 541 667 790 912 1017 1124 1221 1303 1364 1400 1410 1418 1424 1453 1505 1580 1662 1733 1787 1824 1840 1829 1792 1730 1665 1601 1536 1472 1395 1328 1241 1142 1027 901 770 638 500 354 201 30 -1 -1 -1 -1 -1 -1 -1
-1 -1 -1 -1 -1 -1 -1 -1 -1 -1 -1 -1 -1 -1 104 219 311 362 380 369 344 312 272 231 185 147 113 172 252 353 437 501 536 540 524 509 511 543 589 640 670 659 610 546 481 429 388 371 383 395 398 375 344 291 238 211 179 199 200 179 177 157 145 132 153 142 165 149 214 253 303 358 424 490 540 561 550 498 412 293 207 251 362 503 614 700 755 789 809 813 797 758 690 628 582 570 573 598 616 617 597 560 511 455 403 361 331 319 313 308 314 320 341 358 367 361 346 319 291 255 251 250 297 336 363 367 353 325 286 260 255 296 371 487 614 755 886 1013 1123 1226 1316 1394 1453 1491 1515 1536 1559 1594 1643 1707 1767 1814 1841 1845 1819 1761 1676 1574 1476 1399 1313 1235 1131 1021 888 755 631 531 451 365 257 128 -1 -1 -1 -1 -1 -1 -1 -1
-1 -1 -1 -1 -1 -1 -1 -1 -1 -1 -1 -1 -1 -1 20 160 280 373 424 439 428 404 371 333 293 239 190 143 213 309 425 518 580 612 615 607 607 621 649 672 674 630 545 435 350 284 254 247 268 287 278 259 209 153 112 74 88 103 90 98 70 67 41 51 38 67 55 125 167 216 243 298 361 425 466 476 451 396 299 202 177 273 407 523 615 673 711 742 770 791 795 775 738 699 670 657 661 672 677 665 636 596 549 499 450 405 374 350 338 326 314 316 327 340 335 309 269 232 197 184 176 216 258 297 322 331 321 295 266 242 247 272 343 437 571 713 863 1000 1122 1231 1330 1414 1488 1546 1589 1616 1643 1670 1708 1754 1802 1839 1857 1852 1816 1752 1655 1538 1412 1305 1211 1106 979 803 617 437 332 289 264 226 164 69 -1 -1 -1 -1 -1 -1 -1 -1
-1 -1 -1 -1 -1 -1 -1 -1 -1 -1 -1 -1 -1 -1 -1 63 213 346 439 488 500 492 468 438 401 351 275 199 166 264 391 509 600 656 684 687 687 694 702 704 678 611 492 349 224 163 132 148 176 188 188 147 92 37 -1 -1 9 7 25 -1 5 -1 -1 -1 -1 -1 40 86 140 157 210 253 318 365 391 387 357 297 210 149 197 307 429 525 584 621 650 683 724 762 784 788 776 758 742 732 731 728 716 686 644 597 552 508 468 437 413 394 376 357 340 332 335 336 318 265 205 156 136 125 146 182 227 264 293 315 311 291 263 245 242 272 320 417 531 678 827 974 1107 1232 1338 1431 1511 1581 1637 1678 1706 1735 1765 1800 1835 1862 1873 1862 1827 1766 1680 1578 1467 1373 1286 1184 1040 825 525 311 195 160 160 157 129 63 -1 -1 -1 -1 -1 -1 -1 -1
-1 -1 -1 -1 -1 -1 -1 -1 57 92 78 36 -1 -1 -1 -1 108 280 418 509 556 569 562 540 508 458 385 282 191 230 339 476 592 679 727 748 752 752 748 728 680 591 458 302 160 79 56 70 101 126 113 76 4 -1 -1 -1 -1 -1 -1 -1 -1 -1 -1 -1 -1 -1 -1 63 85 144 182 241 281 308 307 291 258 206 151 142 227 338 434 496 530 552 584 631 685 729 761 779 785 788 786 785 779 765 735 684 616 558 509 470 443 429 422 413 399 380 361 346 340 330 302 248 172 121 98 101 121 151 194 243 289 315 320 305 281 263 257 268 324 397 518 651 799 948 1085 1219 1341 1440 1528 1604 1666 1718 1757 1784 1812 1840 1867 1884 1890 1877 1846 1794 1727 1650 1567 1488 1410 1310 1162 931 650 376 228 196 209 215 198 146 56 -1 -1 -1 -1 -1 -1 -1
-1 -1 -1 -1 -1 -1 -1 2 110 173 185 147 74 -1 -1 -1 -1 177 362 499 587 631 643 635 610 570 501 401 294 211 293 421 569 682 757 793 805 800 782 741 670 564 429 279 148 53 16 32 57 81 86 40 -1 -1 -1 -1 -1 -1 -1 -1 -1 -1 -1 -1 -1 -1 -1 22 88 129 187 224 243 235 215 188 161 134 119 179 263 352 414 446 458 485 530 590 643 685 717 742 765 787 804 812 807 785 739 667 578 491 433 390 373 374 390 396 392 377 358 340 325 307 278 230 172 117 90 93 107 141 194 253 300 332 340 332 315 297 288 288 318 405 509 642 785 924 1075 1205 1332 1445 1537 1618 1688 1745 1791 1824 1848 1872 1890 1902 1902 1890 1863 1822 1769 1709 1642 1566 1481 1371 1218 1006 772 521 406 393 387 382 344 272 154 3 -1 -1 -1 -1 -1 -1
-1 -1 -1 -1 -1 -1 -1 -1 135 232 272 254 182 59 -1 -1 -1 62 271 457 588 668 709 719 708 677 619 523 387 268 229 371 540 683 778 829 845 836 804 743 649 524 382 240 127 43 12 19 54 82 82 44 -1 -1 -1 -1 -1 -1 -1 -1 -1 -1 -1 -1 -1 -1 -1 45 89 146 181 197 185 156 125 103 92 98 150 217 296 350 377 382 398 437 496 553 594 622 649 679 719 762 799 818 818 793 739 659 554 456 379 324 289 304 319 341 348 341 327 307 288 266 240 204 163 123 97 94 118 161 217 274 323 353 364 360 349 335 325 329 347 410 523 646 778 927 1061 1204 1326 1441 1546 1630 1705 1766 1816 1851 1876 1893 1906 1911 1908 1895 1872 1839 1793 1742 1675 1596 1497 1369 1210 1040 828 743 683 644 621 577 508 399 253 79 -1 -1 -1 -1 -1 -1
-1 -1 -1 -1 -1 -1 -1 -1 130 260 337 351 302 201 78 -1 -1 -1 172 384 562 681 755 788 793 772 720 622 476 308 226 332 526 689 799 858 877 862 814 734 618 476 324 195 94 50 23 40 69 94 99 79 51 13 -1 -1 -1 -1 -1 -1 -1 -1 3 26 40 37 45 67 113 147 162 155 126 94 74 71 86 136 199 262 304 324 322 328 360 422 476 512 530 539 557 599 665 731 783 813 819 796 745 665 575 481 403 340 293 239 248 261 276 277 265 251 231 212 191 171 143 120 106 111 142 191 244 296 339 365 375 371 361 350 347 357 391 449 546 664 799 927 1070 1197 1329 1444 1547 1641 1715 1781 1831 1868 1890 1902 1907 1907 1901 1889 1869 1842 1805 1753 1689 1603 1490 1359 1221 1058 995 953 924 886 826 752 645 509 342 152 -1 -1 -1 -1 -1 -1
-1 -1 -1 -1 -1 -1 -1 -1 97 257 373 428 419 358 257 144 44 0 92 304 507 673 777 838 861 849 799 700 544 351 246 345 529 700 821 885 901 877 814 713 586 432 292 166 94 50 60 77 98 116 122 113 95 66 28 -1 -1 -1 -1 -1 -1 3 43 73 85 90 93 107 126 138 125 99 81 70 87 112 151 201 251 286 293 281 275 297 362 416 451 456 437 430 448 527 623 704 767 806 817 800 756 689 612 536 465 402 335 268 197 191 195 194 194 179 165 151 142 129 121 114 117 137 172 219 266 308 340 358 362 353 338 325 326 358 413 489 579 699 814 950 1071 1205 1324 1450 1557 1644 1724 1788 1840 1872 1888 1893 1891 1886 1878 1868 1856 1837 1805 1760 1693 1610 1506 1390 1262 1189 1156 1134 1107 1053 977 874 746 594 419 222 11 -1 -1 -1 -1 -1
-1 -1 -1 -1 -1 -1 -1 -1 37 226 375 473 511 491 430 335 238 167 148 248 455 639 782 868 910 908 862 759 594 399 290 387 570 733 846 908 920 885 807 695 554 422 283 170 96 74 103 122 132 137 137 129 115 91 59 23 -1 -1 -1 -1 -1 24 62 85 97 101 107 111 114 101 74 53 56 100 143 190 229 262 286 287 266 242 249 314 370 412 412 367 321 299 381 492 595 686 754 798 815 804 767 712 646 578 515 452 384 303 230 161 135 134 121 111 98 97 93 98 103 118 134 161 197 239 277 305 323 329 324 308 287 268 271 319 403 498 608 716 846 957 1088 1205 1335 1447 1559 1653 1726 1790 1838 1865 1869 1862 1852 1841 1833 1828 1826 1817 1796 1759 1706 1631 1545 1449 1367 1321 1290 1265 1222 1157 1063 944 803 641 465 272 65 -1 -1 -1 -1 -1
-1 -1 -1 -1 -1 -1 -1 -1 -1 169 349 485 568 596 569 509 430 361 314 317 421 610 767 883 941 950 906 798 631 447 355 460 635 784 884 934 935 888 800 675 547 402 273 170 108 128 149 165 159 148 134 119 102 81 56 29 -1 -1 -1 -1 -1 17 42 55 55 58 61 65 55 38 23 23 87 151 213 259 289 302 297 272 240 224 275 330 381 397 363 275 191 233 348 476 586 673 743 789 811 804 773 719 655 589 525 460 392 325 258 199 151 106 81 62 57 56 65 83 110 132 155 181 214 246 275 289 290 285 272 254 230 211 221 275 363 475 595 728 850 982 1093 1221 1334 1452 1554 1650 1730 1790 1832 1849 1838 1812 1783 1762 1755 1763 1775 1781 1775 1754 1715 1661 1593 1521 1465 1419 1382 1338 1280 1197 1088 950 792 626 450 270 80 -1 -1 -1 -1 -1
-1 -1 -1 -1 -1 -1 -1 -1 -1 112 306 470 591 660 679 647 600 542 497 469 492 594 761 883 960 975 929 821 653 495 465 557 711 844 929 964 951 892 790 668 525 374 248 161 165 179 197 191 166 132 100 74 51 33 14 -1 -1 -1 -1 -1 -1 -1 -1 -1 -1 -1 -1 -1 -1 -1 -1 52 128 207 267 305 319 312 288 251 217 245 296 350 380 371 309 200 124 203 340 470 579 666 734 782 806 802 770 714 640 559 487 417 345 293 253 225 183 138 95 59 39 47 74 100 124 147 170 194 220 249 268 268 256 239 227 210 190 179 189 236 320 431 563 698 842 974 1106 1220 1340 1444 1550 1641 1723 1786 1823 1830 1800 1743 1680 1640 1637 1668 1702 1727 1740 1736 1717 1681 1633 1579 1524 1476 1423 1361 1280 1179 1046 882 697 515 346 193 29 -1 -1 -1 -1 -1
-1 -1 -1 -1 -1 -1 -1 -1 -1 79 270 445 588 693 747 758 730 696 655 630 623 668 766 890 968 990 940 827 699 591 602 690 806 909 978 996 967 892 780 637 474 337 218 216 227 240 232 201 144 80 32 -1 -1 -1 -1 -1 -1 -1 -1 -1 -1 -1 -1 -1 -1 -1 -1 -1 -1 -1 14 89 177 250 301 324 323 300 264 229 214 260 314 355 367 333 245 143 89 196 342 465 568 654 723 772 799 796 764 701 615 513 416 337 276 214 222 212 197 162 114 73 51 73 100 122 137 148 165 188 220 248 266 260 237 219 206 193 179 170 178 210 279 386 515 663 803 949 1088 1219 1333 1443 1541 1632 1711 1775 1812 1814 1772 1684 1568 1488 1497 1550 1606 1652 1686 1704 1703 1684 1651 1605 1552 1491 1416 1331 1228 1101 940 743 513 304 147 29 -1 -1 -1 -1 -1 -1
-1 -1 -1 -1 -1 -1 -1 -1 -1 94 261 425 579 697 786 828 834 812 789 768 769 783 830 909 985 1001 955 858 751 724 751 826 911 986 1026 1025 977 882 741 570 420 289 280 283 295 289 253 187 104 7 -1 -1 -1 -1 -1 -1 -1 -1 -1 -1 -1 -1 -1 -1 -1 -1 -1 -1 -1 30 82 152 225 284 317 325 309 275 233 200 224 270 321 347 338 283 178 66 100 209 340 458 554 636 709 761 791 792 760 697 602 488 367 289 238 222 181 189 177 155 119 83 95 113 134 141 134 129 138 170 213 250 271 269 254 239 230 215 199 186 180 200 251 344 470 614 771 911 1057 1194 1325 1437 1534 1624 1702 1764 1802 1803 1757 1665 1527 1373 1362 1402 1481 1551 1609 1649 1669 1667 1647 1610 1555 1478 1384 1265 1133 978 784 557 298 54 -1 -1 -1 -1 -1 -1 -1 -1
-1 -1 -1 -1 -1 -1 -1 -1 -1 137 290 442 579 704 801 872 905 905 890 890 891 904 924 966 1009 1024 981 909 857 853 891 950 1015 1059 1076 1049 978 852 682 494 364 367 361 365 358 323 258 170 62 -1 -1 -1 -1 -1 -1 -1 -1 -1 -1 -1 -1 -1 -1 -1 -1 2 33 62 95 133 173 224 275 311 324 312 283 241 205 188 227 278 317 331 299 214 107 30 95 218 338 443 536 620 692 750 783 790 764 704 612 497 409 357 317 277 232 169 157 139 114 129 142 161 165 150 118 92 107 154 205 251 280 289 285 280 272 258 237 216 200 201 240 314 431 572 725 879 1022 1163 1298 1420 1525 1613 1691 1754 1793 1798 1761 1676 1543 1397 1238 1263 1326 1424 1506 1571 1612 1631 1625 1598 1544 1465 1347 1208 1043 853 639 405 149 -1 -1 -1 -1 -1 -1 -1 -1 -1
-1 -1 -1 -1 -1 -1 -1 -1 45 196 338 476 609 722 822 899 950 974 979 979 992 1006 1021 1035 1057 1060 1033 994 974 985 1014 1058 1099 1124 1114 1065 964 823 634 486 461 457 462 444 408 350 266 161 80 -1 -1 -1 -1 -1 -1 -1 -1 -1 -1 -1 -1 -1 -1 10 52 94 133 167 199 230 259 287 315 328 322 295 254 208 174 189 228 276 309 308 260 155 25 20 94 206 323 426 521 608 683 741 780 791 772 721 641 561 505 461 422 371 302 234 165 146 168 182 199 204 191 152 101 65 87 137 195 245 282 303 313 315 309 295 272 246 225 214 233 303 404 539 686 839 986 1129 1268 1394 1503 1596 1677 1742 1784 1793 1766 1699 1593 1444 1301 1148 1195 1271 1376 1462 1529 1571 1589 1575 1532 1452 1343 1190 1012 814 602 373 167 -1 -1 -1 -1 -1 -1 -1 -1 -1
-1 -1 -1 -1 -1 -1 -1 -1 81 237 384 517 637 749 842 921 981 1022 1044 1057 1070 1087 1099 1110 1114 1115 1100 1085 1084 1093 1119 1149 1172 1174 1145 1068 958 806 687 612 577 572 547 505 450 374 285 202 125 73 50 50 54 44 9 -1 -1 -1 -1 -1 -1 15 58 101 144 185 224 257 286 308 325 334 338 332 310 274 226 183 163 188 232 272 296 284 224 115 -1 -1 81 199 306 410 508 596 675 736 777 794 782 743 687 634 588 545 500 443 376 302 243 220 225 241 244 236 206 154 89 44 65 117 174 227 271 302 322 330 326 311 285 253 223 210 229 285 392 511 652 800 950 1093 1234 1362 1478 1579 1662 1728 1771 1784 1765 1715 1631 1518 1371 1227 1090 1139 1217 1321 1412 1489 1536 1545 1515 1454 1353 1222 1058 877 675 464 257 46 -1 -1 -1 -1 -1 -1 -1 -1
-1 -1 -1 -1 -1 -1 -1 -1 71 248 405 539 661 767 864 940 1005 1057 1093 1115 1135 1151 1168 1175 1179 1174 1171 1165 1166 1183 1201 1220 1228 1216 1166 1083 963 869 793 739 699 663 616 556 485 409 330 256 198 160 141 131 122 101 55 -1 -1 -1 -1 -1 30 89 140 183 225 267 302 330 349 362 366 359 341 315 282 243 199 162 165 194 235 269 279 253 182 77 5 -1 70 195 302 402 499 588 665 728 772 794 791 766 727 681 635 584 529 470 406 344 299 275 270 271 266 247 210 152 79 25 37 85 140 195 244 284 308 317 312 295 264 223 183 159 192 273 364 495 618 760 909 1065 1201 1333 1456 1564 1650 1714 1756 1769 1754 1712 1647 1558 1445 1300 1160 1035 1080 1158 1274 1384 1470 1507 1497 1448 1368 1255 1116 949 758 543 313 73 -1 -1 -1 -1 -1 -1 -1 -1
-1 -1 -1 -1 -1 -1 -1 -1 32 222 398 548 673 788 881 965 1032 1086 1132 1164 1184 1205 1221 1234 1236 1240 1233 1235 1240 1249 1265 1276 1274 1249 1194 1108 1023 953 898 846 792 733 668 594 522 445 373 307 260 223 200 182 162 130 77 -1 -1 -1 -1 -1 80 154 207 254 293 329 361 383 395 397 386 360 322 279 241 205 171 150 164 198 234 257 254 211 126 29 -1 10 92 196 307 401 495 582 655 717 762 791 796 781 746 700 641 574 503 432 369 318 285 270 265 258 248 227 192 137 70 7 5 38 91 149 203 245 271 278 270 248 213 165 109 99 149 234 349 461 601 733 878 1026 1172 1306 1431 1543 1632 1698 1739 1753 1736 1693 1630 1559 1472 1362 1220 1085 972 1020 1123 1274 1391 1458 1469 1434 1362 1260 1128 964 763 527 266 21 -1 -1 -1 -1 -1 -1 -1 -1
-1 -1 -1 -1 -1 -1 -1 -1 -1 192 380 548 689 804 908 990 1061 1118 1163 1202 1228 1246 1265 1281 1292 1292 1295 1293 1299 1307 1316 1321 1310 1280 1225 1157 1095 1034 980 924 857 783 705 622 539 461 388 327 278 239 211 187 163 127 64 -1 -1 -1 -1 39 128 204 264 307 345 377 401 419 425 417 391 348 294 240 194 168 148 140 161 194 221 233 218 161 63 -1 -1 21 122 221 314 408 493 573 645 704 753 783 795 783 749 697 622 530 427 338 268 221 206 206 202 197 186 176 149 107 50 0 -1 -1 38 95 151 194 218 223 211 185 148 95 50 48 100 194 310 446 576 725 866 1002 1142 1282 1406 1516 1609 1677 1721 1733 1715 1667 1596 1515 1449 1369 1261 1114 987 905 998 1152 1309 1403 1430 1404 1333 1228 1084 905 683 423 156 -1 -1 -1 -1 -1 -1 -1 -1 -1
-1 -1 -1 -1 -1 -1 -1 -1 -1 174 368 544 693 823 929 1016 1085 1143 1191 1230 1262 1283 1298 1318 1333 1341 1342 1345 1347 1354 1358 1356 1342 1309 1261 1208 1154 1096 1040 977 901 816 721 622 520 423 342 278 228 193 164 142 119 82 36 -1 -1 -1 17 87 171 247 308 351 382 410 430 442 442 426 393 340 278 218 171 142 130 139 155 177 193 193 166 104 6 -1 -1 26 137 239 333 417 497 568 635 694 741 774 788 779 742 682 596 485 354 244 154 116 116 116 112 102 105 101 90 60 20 -1 -1 -1 5 59 109 147 164 164 147 119 82 47 18 21 64 151 273 414 569 714 863 1002 1136 1260 1382 1492 1584 1658 1703 1716 1695 1645 1561 1465 1377 1317 1231 1105 953 870 891 1067 1233 1343 1382 1361 1291 1175 1016 815 587 338 131 28 -1 -1 -1 -1 -1 -1 -1 -1
-1 -1 -1 -1 -1 -1 -1 -1 -1 176 368 540 698 831 941 1032 1105 1163 1211 1253 1286 1310 1330 1346 1363 1373 1378 1382 1386 1388 1390 1383 1365 1335 1296 1250 1197 1141 1079 1008 925 827 714 585 446 316 218 155 120 90 72 53 40 26 -1 20 36 63 98 149 218 283 340 380 410 431 447 454 449 431 394 344 283 222 174 141 130 133 140 147 148 134 102 38 -1 -1 -1 42 149 251 347 431 503 572 634 687 732 764 778 769 735 673 585 479 353 216 156 118 79 65 53 45 36 42 26 8 -1 -1 -1 -1 15 48 88 117 125 113 90 64 35 18 18 29 56 127 244 395 556 720 866 1014 1140 1262 1368 1475 1568 1641 1688 1703 1685 1634 1554 1442 1319 1220 1133 1012 878 794 857 998 1163 1274 1324 1316 1251 1139 979 783 577 400 278 205 138 39 -1 -1 -1 -1 -1 -1
-1 -1 -1 -1 -1 -1 -1 -1 3 189 377 553 703 837 950 1041 1117 1179 1230 1272 1304 1330 1349 1366 1380 1391 1398 1404 1407 1409 1408 1400 1382 1355 1320 1277 1225 1164 1098 1021 926 815 679 516 343 184 83 44 30 19 8 -1 -1 -1 41 73 114 141 170 209 260 313 359 396 421 439 450 455 449 431 400 354 299 241 191 155 135 121 110 100 85 63 23 -1 -1 -1 -1 73 170 271 360 443 516 578 636 686 725 754 766 758 728 677 605 514 403 297 231 190 155 118 98 81 57 23 2 -1 -1 -1 3 26 50 77 102 118 111 78 51 35 35 30 37 65 99 146 251 406 569 730 890 1028 1160 1271 1376 1470 1558 1629 1676 1694 1682 1640 1568 1460 1324 1161 1020 882 786 756 811 934 1072 1187 1254 1266 1227 1138 1010 855 696 571 476 397 300 163 -1 -1 -1 -1 -1 -1
-1 -1 -1 -1 -1 -1 -1 -1 48 227 404 577 724 850 960 1050 1126 1190 1241 1280 1312 1336 1354 1369 1381 1391 1399 1406 1411 1413 1412 1404 1389 1364 1333 1290 1237 1178 1106 1021 917 788 628 451 272 143 86 84 88 91 78 71 59 73 97 131 157 183 210 243 285 328 367 395 416 430 438 442 439 426 400 362 314 261 211 170 137 101 64 36 10 -1 -1 -1 -1 -1 25 107 203 291 376 450 521 582 637 683 718 741 750 743 721 684 630 560 477 397 337 297 260 226 194 166 130 86 50 31 29 33 50 71 96 119 136 138 114 78 48 58 66 77 89 119 170 231 318 445 599 757 909 1049 1174 1289 1388 1478 1555 1620 1665 1686 1680 1649 1588 1498 1368 1203 1004 867 793 776 785 856 958 1073 1160 1206 1205 1160 1079 973 860 751 655 555 428 263 65 -1 -1 -1 -1 -1
-1 -1 -1 -1 -1 -1 -1 -1 104 277 450 605 753 872 971 1061 1133 1192 1239 1276 1304 1324 1339 1350 1361 1370 1380 1388 1394 1397 1399 1395 1383 1362 1332 1291 1241 1181 1108 1016 905 765 611 447 314 226 208 205 209 206 194 174 162 148 149 152 160 174 199 236 277 319 352 377 393 405 411 416 418 410 391 362 319 272 223 176 129 75 14 -1 -1 -1 -1 -1 -1 11 73 149 231 314 385 456 519 580 631 671 700 719 726 722 708 683 645 596 537 476 425 388 356 322 290 254 215 173 132 106 95 94 101 119 140 159 169 162 129 81 84 96 123 140 165 195 255 334 424 525 652 786 923 1062 1187 1302 1401 1485 1556 1612 1652 1673 1673 1649 1605 1533 1429 1282 1119 987 915 860 818 792 840 927 1031 1115 1165 1172 1138 1073 989 891 786 666 519 342 134 -1 -1 -1 -1 -1
-1 -1 -1 -1 -1 -1 -1 -1 158 335 494 651 780 896 990 1065 1133 1184 1224 1255 1278 1292 1303 1311 1321 1329 1340 1351 1359 1366 1370 1370 1363 1346 1319 1281 1234 1175 1102 1013 900 783 651 523 425 370 339 332 319 303 281 254 220 187 153 127 110 109 134 180 232 280 314 338 353 364 373 379 385 383 372 350 317 272 221 167 109 44 -1 -1 -1 -1 -1 -1 -1 46 115 184 255 323 389 451 513 567 614 648 671 685 690 690 683 669 645 611 569 521 478 443 413 386 357 324 287 247 208 174 154 145 148 158 174 186 190 179 148 107 103 142 175 210 242 287 341 426 515 616 720 832 951 1069 1194 1306 1403 1486 1552 1602 1636 1654 1655 1641 1607 1554 1475 1369 1247 1149 1063 982 887 800 741 780 868 986 1085 1145 1154 1123 1058 966 853 721 565 382 178 -1 -1 -1 -1 -1
-1 -1 -1 -1 -1 -1 -1 56 224 392 552 691 817 918 1002 1071 1122 1164 1195 1217 1233 1242 1246 1253 1260 1270 1284 1297 1308 1318 1325 1329 1325 1316 1293 1260 1215 1161 1094 1011 923 821 715 617 543 491 455 427 402 373 339 298 249 186 120 56 9 -1 27 91 160 219 259 281 302 315 325 333 342 345 343 329 302 259 203 141 74 5 -1 -1 -1 -1 -1 -1 -1 66 137 204 266 329 387 446 502 551 587 614 630 640 644 645 643 641 628 605 572 531 490 455 426 403 385 362 333 297 258 221 193 178 173 177 186 196 199 191 170 145 140 169 218 264 313 365 427 500 593 685 787 890 989 1094 1197 1302 1399 1477 1538 1583 1611 1626 1631 1621 1597 1557 1499 1425 1346 1267 1185 1089 974 850 738 667 722 830 966 1064 1112 1109 1061 974 854 708 545 367 169 -1 -1 -1 -1 -1
-1 -1 -1 -1 -1 -1 -1 134 299 451 601 731 841 931 1003 1058 1101 1130 1150 1163 1168 1172 1174 1175 1183 1195 1210 1227 1243 1254 1264 1270 1276 1272 1256 1227 1187 1138 1081 1015 939 858 773 695 628 576 531 492 455 415 370 318 252 173 74 -1 -1 -1 -1 -1 83 154 194 221 239 256 269 279 291 302 306 299 277 236 176 105 27 -1 -1 -1 -1 -1 -1 -1 0 65 137 199 262 321 380 434 481 521 551 569 578 583 585 585 592 599 599 584 554 513 467 427 396 379 372 362 345 317 282 242 208 184 171 168 176 189 199 204 197 188 186 203 245 305 365 426 492 567 649 743 838 938 1032 1120 1214 1303 1386 1458 1511 1548 1573 1589 1596 1591 1574 1543 1500 1449 1390 1327 1251 1158 1045 921 785 672 610 698 812 931 1003 1025 996 914 787 628 456 284 98 -1 -1 -1 -1 -1
-1 -1 -1 -1 -1 -1 12 188 356 506 635 752 847 923 982 1026 1058 1080 1093 1091 1091 1084 1080 1082 1087 1106 1122 1145 1161 1172 1191 1204 1216 1219 1206 1181 1145 1103 1056 1003 941 874 803 735 673 618 566 521 477 429 379 318 249 154 33 -1 -1 -1 -1 -1 14 87 135 152 172 190 204 219 237 254 264 263 246 209 154 76 -1 -1 -1 -1 -1 -1 -1 -1 0 65 122 183 245 306 362 410 449 479 498 508 513 511 514 514 531 549 558 552 527 485 430 373 335 321 322 325 321 308 280 243 200 163 139 136 148 173 204 223 230 231 235 248 283 336 403 469 540 616 697 783 876 972 1061 1147 1222 1301 1371 1428 1471 1500 1522 1538 1547 1550 1541 1517 1479 1434 1384 1327 1262 1179 1082 973 855 729 640 580 664 748 834 882 871 798 663 486 299 133 -1 -1 -1 -1 -1 -1
-1 -1 -1 -1 -1 -1 31 215 380 528 651 747 827 888 933 968 996 1016 1016 1011 991 977 970 963 981 994 1027 1051 1062 1087 1107 1132 1149 1152 1142 1121 1091 1054 1015 970 917 861 800 741 679 620 566 517 468 420 367 309 233 134 9 -1 -1 -1 -1 -1 -1 29 63 88 97 119 139 160 178 199 214 221 212 183 135 64 -1 -1 -1 -1 -1 -1 -1 -1 9 56 113 168 227 283 333 372 399 420 429 431 425 427 423 445 467 490 509 511 494 455 397 324 262 240 240 252 266 272 258 225 179 123 90 86 119 169 210 243 262 271 280 297 327 374 436 505 574 651 731 816 902 987 1074 1152 1225 1286 1343 1388 1418 1436 1454 1472 1488 1496 1498 1480 1440 1390 1335 1282 1222 1152 1072 989 904 813 715 630 533 581 641 697 699 631 495 300 102 -1 -1 -1 -1 -1 -1 -1
-1 -1 -1 -1 -1 -1 -1 189 363 504 619 708 772 821 856 890 919 929 929 904 874 848 828 839 846 888 918 931 962 989 1025 1054 1070 1073 1061 1045 1022 995 960 919 872 821 770 713 652 590 531 480 432 385 338 281 205 107 -1 -1 -1 -1 -1 -1 -1 -1 -1 9 34 49 72 94 116 137 159 171 168 155 117 56 -1 -1 -1 -1 -1 -1 -1 -1 8 43 93 149 204 252 292 316 338 345 347 332 327 316 337 361 394 427 449 459 449 420 369 294 204 140 132 149 188 214 219 197 148 80 26 44 108 164 214 251 282 302 316 337 369 412 469 535 601 671 750 832 911 989 1063 1134 1196 1251 1295 1326 1341 1350 1369 1389 1415 1436 1442 1426 1385 1322 1256 1196 1137 1074 1008 953 909 869 810 713 599 469 485 500 495 426 295 122 -1 -1 -1 -1 -1 -1 -1 -1
-1 -1 -1 -1 -1 -1 -1 110 285 426 533 616 682 730 770 804 825 832 811 775 730 685 679 673 713 754 776 817 845 895 938 967 976 971 967 952 942 923 892 855 811 765 714 660 598 532 469 418 374 331 288 237 167 73 -1 -1 -1 -1 -1 -1 -1 -1 -1 -1 -1 -1 -1 21 42 67 91 111 122 117 95 49 -1 -1 -1 -1 -1 -1 -1 -1 -1 11 63 119 171 210 235 253 256 257 238 225 199 212 234 272 311 348 380 393 395 376 336 265 164 55 3 36 91 141 165 158 111 30 -1 8 79 146 196 241 277 308 335 361 394 437 489 549 614 680 749 820 895 963 1025 1083 1137 1184 1219 1236 1237 1246 1259 1295 1331 1361 1370 1350 1306 1234 1151 1074 1009 947 894 861 865 884 878 820 700 555 389 350 285 220 131 -1 -1 -1 -1 -1 -1 -1 -1 -1
-1 -1 -1 -1 -1 -1 -1 -1 150 286 398 491 573 641 692 721 725 709 673 613 551 509 472 506 552 584 642 680 741 797 843 865 865 860 853 855 846 833 810 772 731 690 642 586 522 452 386 333 291 258 225 182 118 33 -1 -1 -1 -1 -1 -1 -1 -1 -1 -1 -1 -1 -1 -1 -1 -1 18 45 66 75 63 28 -1 -1 -1 -1 -1 -1 -1 -1 -1 -1 25 80 125 152 164 161 158 138 124 87 85 89 134 176 219 260 295 318 325 321 289 224 119 -1 -1 -1 -1 58 100 103 56 -1 -1 -1 18 88 147 199 245 288 326 362 398 439 485 538 596 658 721 785 844 900 953 1004 1051 1090 1112 1111 1111 1107 1142 1189 1238 1269 1276 1252 1195 1111 1011 917 837 777 735 736 791 868 915 905 824 670 494 300 195 118 59 70 18 -1 -1 -1 -1 -1 -1 -1
-1 -1 -1 -1 -1 -1 -1 -1 4 141 269 388 493 575 621 628 608 568 506 426 349 279 266 304 359 427 491 571 640 698 735 746 739 727 734 738 738 732 706 671 635 598 555 501 433 357 286 230 194 168 148 114 59 -1 -1 -1 -1 -1 -1 -1 -1 -1 -1 -1 -1 -1 -1 -1 -1 -1 -1 -1 3 19 15 -1 -1 -1 -1 -1 -1 -1 -1 -1 -1 -1 -1 34 66 78 70 55 33 15 -1 -1 -1 -1 25 73 123 169 200 228 248 248 228 167 61 -1 -1 -1 -1 -1 28 31 -1 -1 -1 -1 -1 -1 68 134 195 251 297 335 370 404 444 491 545 600 656 712 761 808 854 901 942 966 967 956 943 974 1014 1076 1129 1159 1157 1119 1049 953 837 729 638 570 553 606 723 844 932 959 914 800 630 461 335 259 234 213 179 98 -1 -1 -1 -1 -1 -1
-1 -1 -1 -1 -1 -1 -1 -1 -1 82 221 347 450 514 537 516 467 402 319 223 116 45 53 108 188 270 364 458 536 590 611 604 587 591 591 600 619 612 583 554 522 491 448 401 333 248 172 111 75 67 56 33 -1 -1 -1 -1 -1 -1 -1 -1 -1 -1 -1 -1 -1 -1 -1 -1 -1 -1 -1 -1 -1 -1 -1 -1 -1 -1 -1 -1 -1 -1 -1 -1 -1 -1 -1 -1 -1 -1 -1 -1 -1 -1 -1 -1 -1 -1 -1 -1 20 68 106 132 154 161 141 91 -1 -1 -1 -1 -1 -1 -1 -1 -1 -1 -1 -1 -1 -1 -1 70 145 201 245 277 301 326 358 404 456 509 562 613 657 695 732 773 803 811 786 758 773 818 883 947 1000 1023 1004 950 869 757 634 517 415 364 379 507 672 823 929 980 965 889 771 644 541 473 424 382 317 218 74 -1 -1 -1 -1 -1
-1 -1 -1 -1 -1 -1 -1 -1 -1 99 227 333 407 440 425 375 303 217 122 7 -1 -1 -1 -1 35 132 239 345 422 458 458 435 432 422 429 460 472 463 442 417 396 362 328 283 224 133 41 -1 -1 -1 -1 -1 -1 -1 -1 -1 -1 -1 -1 -1 -1 -1 -1 -1 -1 -1 -1 -1 -1 -1 -1 -1 -1 -1 -1 -1 -1 -1 -1 -1 -1 -1 -1 -1 -1 -1 -1 -1 -1 -1 -1 -1 -1 -1 -1 -1 -1 -1 -1 -1 -1 -1 7 36 51 56 40 -1 -1 -1 -1 -1 -1 -1 -1 -1 -1 -1 -1 -1 -1 -1 -1 24 91 140 170 184 196 206 242 289 341 395 450 497 535 558 588 613 632 615 576 556 594 657 733 802 848 855 819 749 653 533 403 281 202 175 293 464 645 796 904 959 963 921 844 758 680 613 555 488 404 284 129 -1 -1 -1 -1 -1
-1 -1 -1 -1 -1 -1 -1 -1 5 125 228 302 339 330 283 210 124 27 -1 -1 -1 -1 -1 -1 -1 16 133 229 289 305 280 259 238 242 271 287 306 295 276 269 245 219 184 155 103 11 -1 -1 -1 -1 -1 -1 -1 -1 -1 -1 -1 -1 -1 -1 -1 -1 -1 -1 -1 -1 -1 -1 -1 -1 -1 -1 -1 -1 -1 -1 -1 -1 -1 -1 -1 -1 -1 -1 -1 -1 -1 -1 -1 -1 -1 -1 -1 -1 -1 -1 -1 -1 -1 -1 -1 -1 -1 -1 -1 -1 -1 -1 -1 -1 -1 -1 -1 -1 -1 -1 -1 -1 -1 -1 -1 -1 -1 -1 33 59 68 65 51 71 96 149 202 258 314 358 383 403 409 425 424 394 350 365 406 489 569 636 671 662 605 525 417 290 156 58 6 110 268 450 616 751 840 890 901 880 835 777 715 655 592 516 418 293 133 -1 -1 -1 -1 -1
-1 -1 -1 -1 -1 -1 -1 -1 22 120 194 232 227 183 114 32 -1 -1 -1 -1 -1 -1 -1 -1 -1 -1 21 100 142 131 101 57 54 58 88 117 114 121 116 91 81 57 40 18 -1 -1 -1 -1 -1 -1 -1 -1 -1 -1 -1 -1 -1 -1 -1 -1 -1 -1 -1 -1 -1 -1 -1 -1 -1 -1 -1 -1 -1 -1 -1 -1 -1 -1 -1 -1 -1 -1 -1 -1 -1 -1 -1 -1 -1 -1 -1 -1 -1 -1 -1 -1 -1 -1 -1 -1 -1 -1 -1 -1 -1 -1 -1 -1 -1 -1 -1 -1 -1 -1 -1 -1 -1 -1 -1 -1 -1 -1 -1 -1 -1 -1 -1 -1 -1 -1 -1 -1 50 108 161 194 208 209 212 206 200 155 148 153 228 313 398 454 473 437 376 283 168 41 -1 -1 -1 87 261 425 564 663 729 765 779 770 744 702 656 602 543 465 366 242 87 -1 -1 -1 -1 -1
-1 -1 -1 -1 -1 -1 -1 -1 -1 67 111 115 76 11 -1 -1 -1 -1 -1 -1 -1 -1 -1 -1 -1 -1 -1 -1 -1 -1 -1 -1 -1 -1 -1 -1 -1 -1 -1 -1 -1 -1 -1 -1 -1 -1 -1 -1 -1 -1 -1 -1 -1 -1 -1 -1 -1 -1 -1 -1 -1 -1 -1 -1 -1 -1 -1 -1 -1 -1 -1 -1 -1 -1 -1 -1 -1 -1 -1 -1 -1 -1 -1 -1 -1 -1 -1 -1 -1 -1 -1 -1 -1 -1 -1 -1 -1 -1 -1 -1 -1 -1 -1 -1 -1 -1 -1 -1 -1 -1 -1 -1 -1 -1 -1 -1 -1 -1 -1 -1 -1 -1 -1 -1 -1 -1 -1 -1 -1 -1 -1 -1 -1 -1 -1 17 14 2 2 3 -1 -1 -1 -1 43 135 209 255 243 200 128 37 -1 -1 -1 -1 -1 69 224 361 461 530 566 591 599 600 580 551 516 476 422 351 259 146 1 -1 -1 -1 -1 -1
-1 -1 -1 -1 -1 -1 -1 -1 -1 -1 -1 -1 -1 -1 -1 -1 -1 -1 -1 -1 -1 -1 -1 -1 -1 -1 -1 -1 -1 -1 -1 -1 -1 -1 -1 -1 -1 -1 -1 -1 -1 -1 -1 -1 -1 -1 -1 -1 -1 -1 -1 -1 -1 -1 -1 -1 -1 -1 -1 -1 -1 -1 -1 -1 -1 -1 -1 -1 -1 -1 -1 -1 -1 -1 -1 -1 -1 -1 -1 -1 -1 -1 -1 -1 -1 -1 -1 -1 -1 -1 -1 -1 -1 -1 -1 -1 -1 -1 -1 -1 -1 -1 -1 -1 -1 -1 -1 -1 -1 -1 -1 -1 -1 -1 -1 -1 -1 -1 -1 -1 -1 -1 -1 -1 -1 -1 -1 -1 -1 -1 -1 -1 -1 -1 -1 -1 -1 -1 -1 -1 -1 -1 -1 -1 -1 -1 17 36 15 -1 -1 -1 -1 -1 -1 -1 -1 16 140 237 306 342 364 368 384 383 363 344 322 292 249 190 113 17 -1 -1 -1 -1 -1 -1
