-1 -1 -1 -1 -1 -1 -1 -1 -1 -1 -1 -1 -1 -1 -1 -1 -1 -1 -1 -1 -1 -1 -1 -1 -1 -1 -1 -1 -1 -1 -1 -1 -1 -1 -1 -1 -1 -1 -1 -1 -1 -1 -1 -1 -1 -1 -1 -1 -1 -1 -1 -1 -1 -1 -1 -1 -1 -1 -1 -1 -1 -1 -1 -1 -1 -1 -1 -1 -1 -1 -1 -1 -1 -1 -1 -1 -1 -1 -1 -1 -1 -1 -1 -1 -1 -1 -1 -1 -1 -1 -1 -1 -1 -1 -1 -1 -1 -1 -1 -1 -1 -1 -1 -1 -1 -1 -1 -1 -1 -1 -1 -1 -1 -1 -1 -1 -1 -1 -1 -1 -1 -1 -1 -1 -1 -1 -1 -1 -1 -1 -1 -1 -1 -1 -1 -1 -1 -1 -1 -1 -1 -1 -1 -1 -1 -1 -1 -1 -1 -1 -1 -1 -1 -1 -1 -1 -1 -1 -1 -1 -1 -1 -1 -1 -1 -1 -1 -1 -1 -1 -1 -1 -1 -1 -1 -1 -1 -1 -1 -1
-1 -1 -1 -1 -1 -1 -1 -1 -1 -1 -1 -1 -1 -1 -1 -1 -1 -1 -1 -1 -1 -1 -1 -1 -1 -1 -1 -1 -1 -1 -1 -1 -1 -1 -1 -1 -1 -1 -1 -1 -1 -1 -1 -1 -1 -1 -1 -1 -1 -1 -1 -1 -1 -1 -1 -1 -1 -1 -1 -1 -1 -1 -1 -1 -1 -1 -1 -1 -1 -1 -1 -1 -1 -1 -1 -1 -1 -1 -1 -1 -1 -1 -1 -1 -1 -1 -1 -1 -1 -1 -1 -1 -1 -1 -1 -1 -1 -1 -1 -1 -1 -1 -1 -1 -1 -1 -1 -1 -1 -1 -1 -1 -1 -1 -1 -1 -1 -1 -1 -1 -1 -1 -1 -1 -1 -1 -1 -1 -1 -1 -1 -1 -1 -1 -1 -1 -1 -1 -1 -1 -1 -1 -1 -1 -1 -1 -1 -1 -1 -1 -1 -1 -1 -1 -1 -1 -1 -1 -1 -1 -1 -1 -1 -1 -1 -1 -1 -1 -1 -1 -1 -1 -1 -1 -1 -1 -1 -1 -1 -1
-1 -1 -1 -1 -1 -1 -1 -1 -1 -1 -1 -1 -1 -1 -1 -1 -1 -1 -1 -1 -1 -1 -1 -1 -1 -1 -1 -1 -1 -1 -1 -1 -1 -1 -1 -1 -1 -1 -1 -1 -1 -1 -1 -1 -1 -1 -1 -1 -1 -1 -1 -1 -1 -1 -1 -1 -1 -1 -1 -1 -1 -1 -1 -1 -1 -1 -1 -1 -1 -1 -1 -1 -1 -1 -1 -1 -1 -1 -1 -1 -1 -1 -1 -1 -1 -1 -1 -1 -1 -1 -1 -1 -1 -1 -1 -1 -1 -1 -1 -1 -1 -1 -1 -1 -1 -1 -1 -1 -1 -1 -1 -1 -1 -1 -1 -1 -1 -1 -1 -1 -1 -1 -1 -1 -1 -1 -1 -1 -1 -1 -1 -1 -1 -1 -1 -1 -1 -1 -1 -1 -1 -1 -1 -1 -1 -1 -1 -1 -1 -1 -1 -1 -1 -1 -1 -1 -1 -1 -1 -1 -1 -1 -1 -1 -1 -1 -1 -1 -1 -1 -1 -1 -1 -1 -1 -1 -1 -1 -1 -1
-1 -1 -1 -1 -1 -1 -1 -1 -1 -1 -1 -1 -1 -1 -1 -1 -1 -1 -1 -1 -1 -1 -1 -1 -1 -1 -1 -1 -1 -1 -1 -1 -1 -1 -1 -1 -1 -1 -1 -1 -1 -1 -1 -1 -1 -1 -1 -1 -1 -1 -1 -1 -1 -1 -1 -1 -1 -1 -1 -1 -1 -1 -1 -1 -1 -1 -1 -1 -1 -1 -1 -1 -1 -1 -1 -1 -1 -1 -1 -1 -1 -1 -1 -1 -1 -1 -1 -1 -1 -1 -1 -1 -1 -1 -1 -1 -1 -1 -1 -1 -1 -1 -1 -1 -1 -1 -1 -1 -1 -1 -1 -1 -1 -1 -1 -1 -1 -1 -1 -1 -1 -1 -1 -1 -1 -1 -1 -1 -1 -1 -1 -1 -1 -1 -1 -1 -1 -1 -1 -1 -1 -1 -1 -1 -1 -1 -1 -1 -1 -1 -1 -1 -1 -1 -1 -1 -1 -1 -1 -1 -1 -1 -1 -1 -1 -1 -1 -1 -1 -1 -1 -1 -1 -1 -1 -1 -1 -1 -1 -1
-1 -1 -1 -1 -1 -1 -1 -1 -1 -1 -1 -1 -1 -1 -1 -1 -1 -1 -1 -1 -1 -1 -1 -1 -1 -1 -1 -1 -1 -1 -1 -1 -1 -1 -1 -1 -1 -1 -1 -1 -1 -1 -1 -1 -1 -1 -1 -1 -1 -1 -1 -1 -1 -1 -1 -1 -1 -1 -1 -1 -1 -1 -1 -1 -1 -1 -1 -1 -1 -1 -1 -1 -1 -1 -1 -1 -1 -1 -1 -1 -1 -1 -1 -1 -1 -1 -1 -1 -1 -1 -1 -1 -1 -1 -1 -1 -1 -1 -1 -1 -1 -1 -1 -1 -1 -1 -1 -1 -1 -1 -1 -1 -1 -1 -1 -1 -1 -1 -1 -1 -1 -1 -1 -1 -1 -1 -1 -1 -1 -1 -1 -1 -1 -1 -1 -1 -1 -1 -1 -1 -1 -1 -1 -1 -1 -1 -1 -1 -1 -1 -1 -1 -1 -1 -1 -1 -1 -1 -1 -1 -1 -1 -1 -1 -1 -1 -1 -1 -1 -1 -1 -1 -1 -1 -1 -1 -1 -1 -1 -1
-1 -1 -1 -1 -1 -1 -1 -1 -1 -1 -1 -1 -1 -1 -1 -1 -1 -1 -1 -1 -1 -1 -1 -1 -1 -1 -1 -1 -1 -1 -1 -1 -1 -1 -1 -1 -1 -1 -1 -1 -1 -1 -1 -1 -1 -1 -1 -1 -1 -1 -1 -1 -1 -1 -1 -1 -1 -1 -1 -1 -1 -1 -1 -1 -1 -1 -1 -1 -1 -1 -1 -1 -1 -1 -1 -1 -1 -1 -1 -1 -1 -1 -1 -1 -1 -1 -1 -1 -1 -1 -1 -1 -1 -1 -1 -1 -1 -1 -1 -1 -1 -1 -1 -1 -1 -1 -1 -1 -1 -1 -1 -1 -1 -1 -1 -1 -1 -1 -1 -1 -1 -1 -1 -1 -1 -1 -1 -1 -1 -1 -1 -1 -1 -1 -1 -1 -1 -1 -1 -1 -1 -1 -1 -1 -1 -1 -1 -1 -1 -1 -1 -1 41 96 121 94 10 -1 -1 -1 -1 -1 -1 -1 -1 -1 -1 -1 -1 -1 -1 -1 -1 -1 -1 -1 -1 -1 -1 -1
-1 -1 -1 -1 -1 -1 -1 -1 -1 -1 -1 -1 -1 -1 -1 -1 -1 -1 -1 -1 -1 -1 -1 -1 -1 -1 -1 -1 -1 -1 -1 -1 -1 -1 -1 -1 -1 -1 -1 -1 -1 -1 -1 -1 -1 -1 -1 -1 -1 -1 -1 -1 -1 -1 -1 -1 -1 -1 -1 -1 -1 -1 -1 -1 -1 -1 -1 -1 -1 -1 -1 -1 -1 -1 -1 -1 -1 -1 -1 -1 -1 -1 -1 -1 -1 -1 -1 -1 -1 -1 -1 -1 -1 -1 -1 -1 -1 -1 -1 -1 -1 -1 -1 -1 -1 -1 -1 -1 -1 -1 -1 -1 -1 -1 -1 -1 -1 -1 -1 -1 -1 -1 -1 -1 -1 -1 -1 -1 -1 -1 -1 -1 -1 -1 -1 -1 -1 -1 -1 -1 -1 -1 -1 -1 -1 -1 -1 -1 -1 32 125 207 277 331 346 296 173 -1 -1 -1 -1 -1 -1 -1 -1 -1 -1 -1 -1 -1 -1 -1 -1 -1 -1 -1 -1 -1 -1 -1
-1 -1 -1 -1 -1 -1 -1 -1 -1 -1 -1 -1 -1 -1 -1 -1 -1 -1 -1 -1 -1 -1 -1 -1 -1 -1 -1 -1 -1 -1 -1 -1 -1 -1 -1 -1 -1 -1 -1 -1 -1 -1 -1 -1 -1 -1 -1 -1 12 49 64 72 66 56 21 -1 -1 -1 -1 -1 -1 -1 -1 -1 -1 -1 4 80 113 115 79 41 -1 -1 -1 -1 -1 -1 11 58 85 105 83 50 11 -1 -1 -1 -1 -1 -1 -1 -1 -1 -1 -1 -1 -1 -1 -1 -1 -1 -1 -1 -1 -1 -1 -1 -1 -1 -1 -1 -1 -1 -1 -1 -1 -1 -1 -1 -1 -1 -1 -1 -1 -1 -1 -1 -1 -1 -1 -1 -1 -1 -1 -1 -1 -1 -1 -1 -1 -1 -1 45 57 67 61 102 169 257 349 437 502 546 547 474 311 65 -1 -1 -1 -1 -1 -1 -1 -1 -1 -1 -1 -1 -1 -1 -1 -1 -1 -1 -1 -1 -1 -1
-1 -1 -1 -1 -1 -1 -1 -1 -1 -1 -1 -1 -1 -1 -1 -1 -1 -1 -1 -1 -1 -1 -1 -1 -1 -1 -1 -1 -1 -1 -1 -1 -1 -1 -1 -1 -1 -1 -1 -1 -1 -1 -1 -1 -1 -1 -1 21 125 191 234 260 258 251 234 187 108 25 -1 -1 -1 -1 -1 -1 -1 -1 15 140 219 256 261 233 209 167 136 131 134 170 218 252 286 288 284 249 204 153 93 36 -1 -1 -1 -1 -1 -1 -1 -1 -1 -1 -1 -1 -1 -1 -1 -1 -1 -1 -1 -1 -1 -1 -1 -1 -1 -1 -1 -1 -1 -1 -1 -1 -1 -1 -1 -1 -1 -1 -1 -1 -1 -1 -1 54 119 169 193 179 154 107 88 83 105 141 201 256 295 299 311 330 399 480 568 649 713 743 721 623 422 139 -1 -1 -1 -1 -1 -1 -1 -1 -1 -1 -1 -1 -1 -1 -1 -1 -1 -1 -1 -1 -1 -1
-1 -1 -1 -1 -1 -1 -1 -1 -1 -1 -1 -1 -1 -1 -1 -1 -1 -1 -1 -1 -1 -1 -1 -1 -1 -1 -1 -1 -1 -1 -1 -1 -1 -1 -1 -1 -1 -1 -1 -1 -1 -1 -1 -1 -1 -1 -1 56 196 300 370 412 435 434 425 390 326 240 159 97 58 34 -1 -1 -1 -1 -1 122 260 351 397 408 393 376 350 334 347 365 402 445 462 478 458 432 386 337 281 221 167 131 97 68 31 -1 -1 -1 -1 -1 -1 -1 -1 -1 -1 -1 -1 -1 -1 -1 -1 -1 -1 -1 -1 -1 -1 -1 -1 -1 -1 -1 -1 -1 -1 -1 -1 -1 -1 -1 -1 -1 79 166 249 318 360 381 368 352 322 318 318 355 406 464 508 539 539 567 610 691 774 847 899 915 872 743 516 210 -1 -1 -1 -1 -1 -1 -1 -1 -1 -1 -1 -1 -1 -1 -1 -1 -1 -1 -1 -1 -1 -1
-1 -1 -1 -1 -1 -1 -1 -1 -1 -1 -1 -1 -1 -1 -1 -1 -1 -1 -1 -1 -1 -1 -1 -1 -1 -1 -1 -1 -1 -1 -1 -1 -1 -1 -1 -1 -1 -1 -1 -1 -1 -1 -1 -1 -1 -1 -1 82 241 371 468 536 574 597 597 573 521 447 371 308 265 233 203 150 77 5 -1 69 224 388 490 539 552 551 548 531 535 551 580 607 633 636 625 588 551 504 453 394 334 285 248 211 161 91 -1 -1 -1 -1 -1 -1 -1 -1 -1 -1 -1 -1 -1 -1 -1 -1 -1 -1 -1 -1 -1 -1 -1 -1 -1 -1 -1 -1 -1 -1 -1 -1 -1 -1 -1 7 131 238 336 424 494 540 564 557 551 533 542 563 605 658 712 740 761 770 814 885 960 1022 1066 1064 998 847 601 290 -1 -1 -1 -1 -1 -1 -1 -1 -1 -1 -1 -1 -1 -1 -1 -1 -1 -1 -1 -1 -1 -1
-1 -1 -1 -1 -1 -1 -1 -1 -1 -1 -1 -1 -1 -1 -1 -1 -1 -1 -1 -1 -1 -1 -1 -1 -1 -1 -1 -1 -1 -1 -1 -1 -1 -1 -1 -1 -1 -1 -1 -1 -1 17 75 94 80 59 62 152 281 426 541 628 689 725 742 736 697 637 567 505 458 423 391 347 271 145 19 -1 167 383 542 634 678 697 707 711 700 717 732 755 770 779 761 734 694 652 602 542 481 421 377 332 274 186 65 -1 -1 -1 -1 -1 -1 -1 -1 -1 -1 -1 -1 41 46 37 2 -1 -1 -1 -1 -1 -1 -1 -1 -1 -1 -1 -1 -1 -1 -1 -1 -1 -1 0 134 260 376 480 574 649 702 734 737 740 745 760 795 843 887 927 944 964 1000 1056 1123 1180 1207 1192 1111 945 696 394 123 5 2 33 10 -1 -1 -1 -1 -1 -1 -1 -1 -1 -1 -1 -1 -1 -1 -1 -1 -1
-1 -1 -1 -1 -1 -1 -1 -1 -1 -1 -1 -1 -1 -1 -1 -1 -1 -1 -1 -1 -1 -1 -1 -1 -1 -1 -1 -1 -1 -1 -1 -1 -1 -1 -1 -1 -1 -1 -1 -1 -1 -1 116 195 235 241 243 275 363 478 605 704 778 829 862 868 848 799 736 675 627 594 562 516 434 281 75 -1 108 374 574 701 773 814 841 848 852 848 867 881 893 891 884 854 816 772 722 662 595 532 476 427 354 254 113 -1 -1 -1 -1 -1 -1 -1 -1 -1 -1 -1 67 125 157 152 134 95 58 26 -1 -1 -1 -1 -1 -1 -1 -1 -1 -1 -1 -1 -1 -1 -1 -1 99 236 366 484 594 698 782 848 891 911 925 941 970 1010 1056 1083 1113 1133 1165 1212 1266 1311 1328 1302 1213 1046 802 525 304 203 203 198 124 -1 -1 -1 -1 -1 -1 -1 -1 -1 -1 -1 -1 -1 -1 -1 -1 -1
-1 -1 -1 -1 -1 -1 -1 -1 -1 -1 -1 -1 -1 -1 -1 -1 -1 -1 -1 -1 -1 -1 36 82 94 73 28 -1 -1 -1 -1 -1 -1 -1 -1 -1 -1 -1 -1 -1 -1 -1 83 218 318 378 409 435 480 557 660 770 854 911 950 972 964 928 872 814 771 737 707 658 559 377 136 -1 127 375 599 751 846 907 941 963 970 973 974 989 993 992 979 952 911 864 809 748 680 611 554 487 400 278 131 -1 -1 -1 -1 -1 -1 -1 -1 -1 -1 47 131 208 245 263 250 225 192 166 140 96 52 17 11 -1 -1 -1 -1 -1 -1 -1 -1 -1 -1 -1 23 179 311 435 555 678 797 900 982 1041 1073 1096 1124 1161 1196 1231 1254 1287 1310 1347 1392 1424 1433 1401 1312 1151 930 690 515 436 402 363 236 14 -1 -1 -1 -1 -1 -1 -1 -1 -1 -1 -1 -1 -1 -1 -1 -1
-1 -1 -1 -1 -1 -1 -1 -1 -1 -1 -1 -1 -1 -1 -1 -1 -1 -1 -1 -1 -1 27 118 173 201 195 164 117 54 -1 -1 -1 -1 -1 48 69 46 -1 -1 -1 -1 -1 -1 167 322 442 520 572 607 656 733 830 915 980 1022 1046 1051 1027 980 930 888 862 826 770 653 457 193 20 154 412 628 789 905 976 1025 1054 1069 1071 1074 1076 1079 1073 1056 1024 982 930 872 808 737 664 594 511 399 262 95 -1 -1 -1 -1 -1 -1 -1 -1 25 86 154 226 288 337 355 360 345 323 299 280 254 217 183 159 149 123 86 47 -1 -1 -1 -1 -1 -1 -1 -1 74 216 335 460 595 741 887 1011 1111 1180 1221 1254 1288 1327 1354 1383 1406 1442 1470 1499 1523 1527 1495 1410 1265 1077 887 749 656 599 517 347 83 -1 -1 -1 -1 -1 -1 -1 -1 -1 -1 -1 -1 -1 -1 -1 -1
-1 -1 -1 -1 -1 -1 -1 -1 -1 -1 -1 -1 -1 -1 -1 -1 -1 -1 -1 -1 -1 94 193 262 299 308 290 257 206 132 32 -1 -1 -1 70 138 155 126 59 -1 -1 -1 -1 63 256 428 563 652 713 760 816 891 969 1037 1083 1108 1115 1102 1065 1026 991 958 922 851 727 521 245 60 201 451 664 825 947 1034 1091 1129 1146 1155 1153 1154 1149 1136 1114 1078 1033 979 920 852 776 691 599 488 355 192 8 -1 -1 -1 -1 4 72 116 139 182 227 280 335 389 426 447 454 453 441 429 411 396 371 346 320 296 273 239 200 161 108 47 -1 -1 -1 -1 -1 -1 70 181 298 443 616 800 976 1118 1228 1304 1356 1398 1434 1468 1491 1520 1547 1578 1602 1612 1611 1583 1508 1389 1243 1103 965 860 776 662 464 176 -1 -1 -1 -1 36 62 25 -1 -1 -1 -1 -1 -1 -1 -1 -1
-1 -1 -1 -1 -1 -1 -1 -1 -1 -1 -1 -1 -1 -1 -1 -1 -1 -1 -1 -1 72 173 271 343 389 407 405 378 334 261 154 8 -1 -1 62 179 243 250 212 141 41 -1 -1 -1 153 355 534 676 776 844 898 956 1025 1086 1134 1162 1171 1161 1137 1109 1078 1042 989 906 769 557 280 90 230 482 695 856 983 1079 1144 1187 1211 1218 1219 1212 1202 1182 1153 1115 1069 1013 951 881 793 690 566 424 262 81 -1 -1 -1 -1 80 167 230 272 304 328 367 404 448 487 519 536 542 545 546 538 533 521 509 490 473 447 417 386 356 320 273 223 154 89 20 -1 -1 -1 -1 -1 84 227 424 656 875 1064 1216 1334 1418 1476 1521 1559 1592 1616 1644 1670 1690 1700 1691 1662 1605 1516 1406 1284 1157 1033 934 803 586 302 53 -1 27 130 205 213 151 28 -1 -1 -1 -1 -1 -1 -1 -1
-1 -1 -1 -1 -1 -1 -1 -1 -1 -1 -1 -1 -1 -1 -1 -1 -1 -1 50 115 196 282 357 425 469 497 503 486 440 363 247 94 -1 -1 50 202 304 354 354 310 233 127 37 -1 77 255 458 641 787 890 959 1018 1079 1134 1177 1208 1220 1216 1198 1176 1150 1106 1037 930 770 537 272 96 243 493 707 876 1009 1110 1182 1230 1257 1270 1267 1257 1238 1211 1177 1137 1088 1033 968 886 786 658 502 327 143 -1 -1 -1 47 160 251 324 376 414 440 465 486 518 545 578 602 615 623 629 632 633 633 632 625 617 602 585 557 528 497 465 433 381 327 256 188 117 41 -1 -1 -1 -1 9 216 473 727 954 1148 1307 1429 1515 1577 1627 1669 1701 1725 1748 1768 1774 1768 1742 1700 1634 1546 1435 1304 1182 1081 940 716 455 257 215 248 317 368 355 273 126 -1 -1 -1 -1 -1 -1 -1 -1
-1 -1 -1 -1 -1 -1 -1 -1 -1 -1 -1 -1 -1 -1 -1 -1 63 131 189 253 323 395 459 507 549 576 588 576 530 442 313 160 -1 -1 35 209 339 425 462 456 405 328 231 152 110 193 365 567 747 888 988 1060 1122 1175 1218 1245 1263 1262 1250 1233 1202 1148 1058 924 728 492 215 136 268 484 696 876 1019 1127 1207 1260 1292 1305 1301 1284 1256 1223 1182 1135 1084 1028 959 866 744 589 409 208 50 -1 20 114 235 331 407 465 504 530 551 567 586 602 624 645 665 680 689 698 704 708 714 720 722 718 715 700 682 655 628 601 568 533 482 427 356 289 211 117 16 -1 -1 -1 75 306 562 811 1038 1234 1391 1508 1598 1664 1717 1760 1793 1816 1833 1842 1836 1820 1786 1736 1660 1554 1430 1322 1218 1071 854 631 495 460 479 510 524 489 386 224 39 -1 -1 -1 -1 -1 -1 -1
-1 -1 -1 -1 -1 -1 -1 -1 -1 -1 -1 -1 -1 -1 -1 36 136 227 304 371 433 497 552 595 626 648 662 652 604 506 363 187 23 -1 37 194 343 454 528 554 548 500 432 349 280 249 327 491 682 848 980 1077 1148 1205 1250 1280 1296 1301 1293 1274 1240 1174 1064 904 696 446 308 255 318 501 687 865 1013 1131 1217 1278 1313 1326 1318 1292 1254 1204 1152 1097 1044 984 911 804 662 488 284 116 -1 88 182 304 400 479 534 568 593 609 618 629 639 649 660 678 697 714 731 746 759 767 779 791 798 801 798 796 782 764 740 718 691 661 631 582 528 465 396 311 218 124 50 22 85 229 435 676 917 1134 1316 1463 1577 1669 1740 1794 1836 1865 1887 1897 1898 1886 1863 1819 1752 1655 1548 1453 1349 1197 998 832 736 696 692 695 669 607 489 320 131 -1 -1 -1 -1 -1 -1 -1
-1 -1 -1 -1 -1 -1 -1 -1 -1 -1 -1 -1 -1 -1 -1 38 171 280 376 454 518 573 626 666 694 714 723 714 665 565 414 239 74 -1 41 172 311 443 541 607 632 631 594 536 468 416 403 484 631 804 950 1066 1155 1220 1269 1303 1324 1330 1325 1307 1266 1194 1078 909 704 545 451 434 466 563 716 865 1005 1127 1222 1287 1325 1334 1319 1278 1217 1142 1071 1008 948 890 812 698 547 352 186 44 152 251 368 456 530 577 608 626 632 633 632 631 633 637 644 660 682 705 731 759 785 807 826 842 854 862 865 864 860 846 833 813 793 775 754 726 683 635 578 510 431 353 294 254 274 305 425 605 828 1041 1231 1393 1532 1645 1734 1804 1856 1897 1925 1942 1948 1944 1923 1886 1825 1743 1656 1573 1467 1319 1153 1031 954 908 889 853 800 709 578 408 223 27 -1 -1 -1 -1 -1 -1
-1 -1 -1 -1 -1 -1 -1 -1 -1 -1 -1 -1 -1 -1 -1 2 156 292 401 492 562 620 667 709 741 761 772 763 718 624 485 329 187 101 70 145 265 392 507 598 665 701 710 685 640 590 563 578 662 781 923 1046 1146 1223 1278 1317 1341 1351 1347 1329 1290 1220 1109 956 796 685 635 620 645 699 790 904 1021 1131 1226 1292 1329 1334 1307 1246 1150 1034 935 853 792 727 649 549 394 250 101 208 305 430 513 571 605 620 623 619 609 594 576 565 560 557 562 578 603 640 682 730 778 820 851 875 892 904 908 911 908 903 893 884 872 863 856 841 818 784 748 695 635 579 530 513 499 528 558 667 812 990 1171 1335 1478 1603 1707 1793 1862 1912 1948 1973 1986 1985 1970 1938 1885 1818 1748 1673 1572 1441 1307 1210 1145 1098 1046 990 904 795 649 480 294 93 -1 -1 -1 -1 -1 -1
-1 -1 -1 -1 -1 -1 -1 -1 -1 -1 -1 -1 -1 -1 -1 -1 102 253 377 473 552 616 668 713 751 780 799 798 765 687 573 452 339 241 180 155 219 317 428 533 639 721 771 789 777 750 728 732 760 827 921 1039 1135 1216 1278 1322 1349 1361 1358 1341 1307 1249 1155 1033 916 843 802 800 817 853 908 983 1069 1158 1238 1301 1333 1331 1292 1208 1082 919 766 671 595 527 455 365 284 168 272 364 484 563 616 635 626 603 575 551 524 494 466 443 428 414 413 425 467 525 595 671 746 808 855 888 910 923 929 930 929 925 924 924 924 925 926 925 916 905 881 850 810 772 746 725 738 749 788 834 909 1023 1161 1309 1447 1567 1682 1776 1856 1916 1962 1991 2009 2012 2002 1975 1933 1880 1826 1757 1669 1559 1446 1365 1307 1250 1181 1092 987 857 706 523 326 107 -1 -1 -1 -1 -1 -1
-1 -1 -1 -1 -1 -1 -1 -1 -1 -1 -1 -1 -1 -1 -1 -1 2 163 289 392 473 542 603 659 712 759 797 816 803 751 673 585 493 400 316 258 214 254 325 447 579 698 787 845 872 876 872 875 889 918 975 1054 1141 1214 1275 1322 1350 1360 1355 1339 1313 1269 1203 1118 1037 982 959 951 968 996 1032 1081 1139 1202 1265 1314 1338 1329 1280 1190 1045 865 688 563 484 415 345 283 246 352 438 547 620 662 675 654 602 536 479 429 391 356 320 291 263 242 231 254 319 409 512 613 707 785 844 884 910 924 927 925 919 919 923 931 942 955 966 974 977 977 969 955 935 914 905 905 917 952 991 1028 1072 1132 1222 1331 1451 1569 1671 1770 1850 1916 1966 1999 2017 2023 2017 1997 1967 1929 1883 1824 1749 1656 1563 1495 1436 1366 1281 1172 1049 911 736 536 297 54 -1 -1 -1 -1 -1 -1
-1 -1 -1 -1 -1 -1 -1 -1 -1 -1 -1 -1 -1 -1 -1 -1 -1 13 133 225 306 380 458 537 615 693 764 811 825 808 766 704 631 552 469 385 314 256 285 382 520 656 776 865 927 961 979 991 1004 1023 1060 1107 1167 1228 1280 1320 1345 1351 1338 1319 1303 1280 1239 1190 1142 1100 1077 1077 1086 1109 1137 1167 1204 1248 1294 1331 1345 1329 1280 1188 1064 909 758 657 582 521 466 430 457 523 611 674 710 721 700 645 558 453 352 286 239 204 175 142 116 101 100 147 240 358 471 584 681 766 830 873 899 909 906 897 888 888 899 915 937 960 978 990 998 1001 1002 1000 994 991 995 1015 1048 1093 1142 1185 1226 1276 1335 1403 1500 1598 1694 1777 1857 1917 1962 1994 2012 2020 2016 2003 1983 1955 1918 1870 1809 1735 1657 1593 1528 1450 1353 1237 1106 949 761 512 251 -1 -1 -1 -1 -1 -1 -1
-1 -1 -1 -1 -1 -1 -1 -1 -1 -1 -1 -1 -1 -1 -1 -1 -1 -1 -1 -1 60 145 247 360 480 602 708 786 832 848 835 800 749 685 610 531 449 380 350 396 500 635 761 871 951 1011 1048 1073 1094 1118 1140 1174 1211 1253 1293 1323 1339 1335 1312 1284 1273 1265 1252 1234 1209 1183 1169 1166 1173 1187 1205 1224 1249 1280 1314 1343 1352 1334 1284 1209 1105 992 887 802 740 686 644 625 634 666 706 734 747 736 697 626 520 392 256 152 104 78 53 41 33 47 86 156 256 371 485 587 681 755 818 858 879 883 872 855 844 846 863 889 919 946 964 975 980 983 984 988 990 994 1016 1054 1112 1176 1235 1294 1345 1394 1449 1507 1571 1652 1729 1804 1865 1918 1956 1980 1994 2000 1996 1989 1977 1960 1935 1898 1850 1791 1730 1663 1593 1510 1409 1288 1146 985 768 526 229 -1 -1 -1 -1 -1 -1 -1
-1 -1 -1 -1 -1 -1 -1 -1 -1 -1 -1 -1 -1 -1 -1 -1 -1 -1 -1 -1 -1 -1 58 202 362 518 653 755 826 864 877 865 837 791 732 666 598 536 497 500 557 652 770 875 967 1036 1090 1126 1157 1184 1208 1228 1255 1282 1307 1327 1332 1316 1279 1237 1220 1224 1236 1242 1240 1232 1223 1220 1220 1223 1231 1241 1260 1289 1322 1347 1355 1337 1296 1228 1143 1048 962 888 825 770 730 705 697 702 712 723 722 708 669 600 499 366 223 95 25 -1 -1 -1 38 87 154 232 321 420 515 604 684 750 802 837 852 846 827 806 796 805 833 866 897 917 930 933 935 932 936 938 938 952 982 1044 1121 1203 1283 1354 1419 1478 1535 1592 1652 1709 1772 1828 1878 1914 1939 1955 1964 1963 1962 1955 1950 1945 1931 1907 1871 1827 1773 1712 1641 1558 1456 1332 1189 1012 814 560 305 45 -1 -1 -1 -1 -1 -1
-1 -1 -1 -1 -1 -1 -1 -1 -1 -1 -1 -1 -1 -1 -1 -1 -1 -1 -1 -1 -1 -1 27 161 312 477 612 728 810 865 892 900 889 861 823 777 728 680 648 638 665 723 803 897 985 1058 1116 1161 1195 1225 1248 1266 1283 1301 1317 1327 1323 1297 1250 1190 1158 1168 1195 1222 1240 1247 1245 1238 1228 1220 1213 1219 1239 1277 1315 1345 1355 1342 1301 1240 1154 1059 961 873 793 726 671 643 627 621 626 635 643 640 616 561 478 367 233 107 17 -1 -1 8 70 149 229 306 378 450 522 594 665 728 778 808 816 803 778 758 756 783 818 848 869 879 881 880 874 875 878 878 881 887 933 1011 1103 1198 1293 1381 1458 1526 1589 1647 1703 1756 1803 1844 1877 1900 1913 1919 1918 1917 1910 1909 1907 1910 1906 1894 1872 1839 1796 1740 1676 1594 1495 1373 1232 1064 862 650 409 161 -1 -1 -1 -1 -1 -1
-1 -1 -1 -1 -1 -1 -1 -1 -1 -1 -1 -1 -1 -1 -1 -1 -1 12 32 40 62 95 159 242 361 481 610 713 799 855 891 906 908 896 875 846 815 785 764 763 778 815 870 935 1011 1079 1134 1178 1214 1240 1263 1279 1292 1302 1313 1318 1310 1282 1229 1169 1116 1115 1147 1190 1221 1235 1235 1222 1204 1183 1169 1168 1202 1250 1301 1336 1351 1341 1305 1236 1148 1031 900 766 651 542 475 439 434 440 450 481 514 533 531 496 435 350 241 126 31 -1 -1 15 93 179 257 321 369 413 463 526 599 669 729 769 779 760 734 722 745 776 807 827 833 832 825 818 818 825 833 835 833 849 893 975 1077 1184 1285 1383 1474 1551 1618 1677 1730 1775 1813 1840 1858 1866 1871 1866 1864 1855 1851 1844 1850 1855 1862 1861 1851 1832 1799 1754 1693 1616 1521 1408 1274 1113 931 728 504 259 11 -1 -1 -1 -1 -1
-1 -1 -1 -1 -1 -1 -1 -1 -1 -1 -1 -1 -1 -1 -1 -1 17 95 155 205 247 289 335 397 462 547 639 726 794 846 875 891 898 896 886 869 852 839 836 842 865 896 937 988 1043 1096 1142 1180 1211 1237 1256 1270 1277 1285 1292 1298 1294 1273 1228 1163 1109 1084 1115 1159 1192 1208 1203 1187 1160 1137 1119 1127 1164 1226 1282 1326 1346 1337 1298 1232 1127 999 843 661 481 315 176 160 164 182 229 287 344 391 410 399 362 301 217 116 23 -1 -1 0 74 155 215 253 270 282 321 383 469 565 655 719 740 728 704 713 741 770 788 791 788 779 769 766 778 798 808 811 814 830 875 949 1053 1164 1274 1377 1473 1557 1627 1685 1733 1770 1796 1811 1816 1816 1808 1805 1796 1785 1773 1768 1773 1786 1797 1808 1813 1804 1784 1746 1692 1619 1529 1424 1295 1142 967 767 547 310 62 -1 -1 -1 -1 -1
-1 -1 -1 -1 -1 -1 -1 -1 -1 -1 -1 -1 -1 -1 -1 -1 43 133 223 306 377 436 488 533 582 634 695 756 805 836 854 861 864 866 859 851 842 841 851 875 907 946 985 1023 1064 1101 1134 1163 1191 1214 1230 1239 1245 1246 1255 1266 1272 1262 1228 1173 1110 1077 1094 1130 1158 1171 1166 1142 1118 1097 1091 1115 1159 1214 1275 1317 1340 1333 1294 1221 1124 990 833 664 452 196 -1 -1 -1 -1 2 80 160 224 263 272 254 215 148 61 -1 -1 -1 -1 11 70 104 105 89 86 114 183 290 431 562 656 704 704 692 706 733 751 755 750 739 729 723 737 764 785 799 803 809 828 871 945 1040 1151 1262 1368 1466 1550 1619 1676 1717 1744 1757 1759 1757 1743 1739 1728 1716 1698 1676 1673 1677 1692 1712 1739 1757 1763 1753 1723 1673 1602 1514 1406 1277 1123 942 739 519 284 42 -1 -1 -1 -1 -1
-1 -1 -1 -1 -1 -1 -1 -1 -1 -1 -1 -1 -1 -1 -1 -1 71 164 257 355 448 526 588 639 679 718 753 788 816 828 825 820 817 816 810 803 798 799 821 859 908 956 997 1032 1058 1081 1101 1127 1157 1179 1190 1194 1190 1195 1203 1225 1246 1250 1227 1177 1122 1075 1077 1098 1123 1136 1127 1106 1084 1074 1087 1120 1166 1219 1271 1315 1337 1330 1290 1226 1130 1018 881 713 497 236 -1 -1 -1 -1 -1 -1 -1 58 105 126 123 94 41 -1 -1 -1 -1 -1 -1 -1 -1 -1 -1 -1 -1 -1 125 304 467 590 664 689 685 698 712 722 717 709 699 694 706 732 756 777 786 790 798 830 882 953 1048 1148 1258 1362 1454 1535 1603 1653 1685 1699 1700 1692 1670 1663 1650 1640 1621 1592 1570 1552 1554 1571 1612 1656 1689 1712 1711 1688 1640 1565 1466 1346 1207 1040 844 628 399 166 -1 -1 -1 -1 -1 -1
-1 -1 -1 -1 -1 -1 -1 -1 -1 -1 -1 -1 -1 -1 -1 30 118 203 294 386 481 570 645 703 745 774 799 818 824 816 794 773 766 761 753 749 739 746 769 816 878 934 977 1004 1019 1032 1049 1084 1116 1135 1140 1130 1124 1124 1144 1183 1221 1240 1226 1187 1133 1088 1059 1073 1089 1100 1095 1080 1067 1069 1088 1125 1174 1225 1275 1315 1336 1330 1294 1229 1147 1041 912 750 541 324 95 -1 -1 -1 -1 -1 -1 -1 -1 -1 -1 -1 -1 -1 -1 -1 -1 -1 -1 -1 -1 -1 -1 -1 -1 -1 8 195 378 525 624 676 693 684 694 689 689 678 683 699 712 725 740 751 758 757 785 826 892 970 1057 1161 1261 1358 1447 1521 1580 1620 1637 1640 1628 1598 1582 1561 1552 1537 1511 1481 1438 1414 1401 1439 1502 1568 1625 1661 1670 1647 1592 1508 1393 1250 1081 888 674 437 188 -1 -1 -1 -1 -1 -1 -1
-1 -1 -1 -1 -1 -1 -1 -1 -1 -1 -1 -1 -1 -1 -1 47 155 253 337 425 512 593 673 737 780 808 823 829 825 807 775 740 723 713 709 703 700 708 728 777 834 889 926 942 951 962 999 1042 1073 1086 1074 1058 1039 1046 1093 1154 1207 1234 1229 1195 1147 1096 1061 1046 1060 1069 1070 1066 1064 1072 1094 1131 1180 1234 1282 1320 1339 1332 1298 1237 1153 1044 915 759 598 416 226 45 -1 -1 -1 -1 -1 -1 -1 -1 -1 -1 -1 -1 -1 -1 -1 -1 -1 -1 -1 -1 -1 -1 -1 -1 -1 114 299 460 580 660 694 699 678 676 667 682 693 704 708 706 705 712 711 731 762 828 898 984 1078 1171 1269 1359 1440 1506 1550 1573 1578 1563 1530 1503 1466 1447 1433 1423 1397 1353 1306 1255 1255 1316 1407 1502 1574 1616 1627 1602 1542 1443 1307 1134 927 688 437 191 -1 -1 -1 -1 -1 -1 -1 -1
-1 -1 -1 -1 -1 -1 -1 -1 -1 -1 -1 -1 -1 -1 -1 41 172 286 382 469 548 626 694 754 797 820 829 828 818 799 768 731 700 689 680 685 700 715 733 748 796 833 857 868 871 910 963 1011 1035 1026 1003 965 951 985 1057 1135 1198 1231 1231 1203 1157 1106 1064 1037 1037 1046 1052 1062 1072 1087 1109 1143 1192 1242 1290 1326 1342 1334 1298 1237 1148 1042 917 795 659 514 356 201 69 -1 -1 -1 -1 -1 -1 -1 -1 -1 -1 -1 -1 -1 -1 -1 -1 -1 -1 -1 -1 31 32 13 -1 86 237 399 538 637 695 709 698 670 674 683 697 699 694 681 682 685 694 715 770 834 915 1000 1092 1186 1275 1361 1432 1482 1510 1516 1500 1462 1424 1377 1342 1313 1316 1310 1285 1236 1168 1121 1143 1229 1342 1448 1529 1572 1581 1558 1493 1385 1226 1028 786 515 224 -1 -1 -1 -1 -1 -1 -1 -1 -1
-1 -1 -1 -1 -1 -1 -1 -1 -1 -1 -1 -1 -1 -1 -1 39 177 304 414 509 590 657 719 769 805 822 824 817 806 791 767 737 708 682 683 698 719 740 754 763 759 783 800 802 838 896 952 990 995 965 915 877 883 953 1043 1129 1194 1230 1232 1205 1161 1112 1064 1037 1027 1035 1051 1072 1090 1108 1131 1162 1202 1249 1294 1327 1342 1332 1294 1228 1144 1040 940 830 714 587 452 317 178 33 -1 -1 -1 -1 -1 -1 -1 -1 -1 -1 -1 -1 -1 -1 -1 -1 -1 35 147 212 242 205 156 113 214 351 500 618 693 726 721 700 675 680 684 688 683 696 704 710 724 746 793 860 936 1022 1111 1196 1280 1355 1414 1449 1459 1442 1405 1352 1290 1238 1195 1196 1196 1223 1203 1135 1066 1041 1076 1176 1298 1407 1485 1528 1537 1514 1455 1347 1188 981 739 460 182 -1 -1 -1 -1 -1 -1 -1 -1 -1
-1 -1 -1 -1 -1 -1 -1 -1 -1 -1 -1 -1 -1 -1 -1 43 180 314 436 540 625 691 744 786 813 821 815 801 789 780 767 746 718 701 703 716 738 758 773 775 770 758 769 805 849 902 946 964 949 900 838 814 863 954 1050 1135 1199 1231 1232 1205 1163 1112 1072 1041 1033 1042 1064 1090 1110 1128 1146 1169 1200 1242 1288 1322 1339 1328 1286 1220 1132 1041 940 830 714 591 466 337 199 48 -1 -1 -1 -1 -1 -1 -1 -1 -1 -1 -1 -1 -1 -1 -1 -1 -1 155 281 373 411 399 326 257 224 339 481 606 696 741 748 728 701 679 678 687 714 734 751 767 778 802 837 895 966 1046 1129 1209 1279 1338 1381 1401 1393 1359 1302 1224 1145 1083 1067 1066 1140 1177 1151 1079 1019 1008 1054 1146 1263 1370 1444 1482 1491 1475 1427 1337 1204 1029 814 578 340 167 38 -1 -1 -1 -1 -1 -1 -1
-1 -1 -1 -1 -1 -1 -1 -1 -1 -1 -1 -1 -1 -1 28 91 194 321 447 557 647 719 771 807 824 822 806 787 775 770 764 752 738 734 733 738 749 763 773 778 776 776 791 824 864 901 921 920 891 841 791 805 884 983 1077 1153 1207 1233 1230 1204 1161 1118 1080 1056 1049 1061 1081 1104 1120 1130 1137 1149 1176 1222 1274 1316 1333 1323 1282 1210 1123 1010 878 744 609 478 354 235 115 -1 -1 -1 -1 -1 -1 -1 -1 -1 -1 -1 -1 -1 -1 -1 -1 -1 57 229 373 481 540 539 483 386 321 369 492 616 707 759 775 763 736 715 709 725 752 778 797 816 833 853 886 933 996 1067 1141 1209 1266 1308 1333 1336 1321 1280 1197 1091 999 948 935 1016 1104 1153 1128 1058 1007 1002 1051 1135 1235 1331 1397 1432 1446 1437 1406 1341 1243 1107 943 754 565 407 260 101 -1 -1 -1 -1 -1 -1
-1 -1 -1 -1 -1 -1 -1 -1 -1 -1 -1 -1 -1 19 94 154 231 339 454 566 664 738 795 828 839 829 806 783 765 763 763 766 764 767 766 764 760 757 760 760 766 779 801 828 854 869 870 853 830 801 788 844 927 1024 1109 1175 1217 1233 1225 1197 1163 1125 1093 1074 1069 1075 1089 1101 1105 1100 1090 1096 1133 1198 1261 1306 1328 1320 1277 1205 1094 942 751 554 381 241 126 36 -1 -1 -1 -1 -1 -1 -1 -1 -1 -1 -1 -1 -1 -1 -1 -1 -1 -1 47 248 416 540 617 635 590 503 437 451 539 642 727 780 800 794 775 758 756 765 787 810 828 846 864 886 917 961 1016 1077 1139 1194 1234 1259 1265 1266 1251 1205 1113 985 881 835 885 990 1090 1135 1113 1054 1006 1004 1049 1129 1214 1288 1342 1379 1394 1399 1378 1336 1266 1166 1040 892 734 582 415 230 23 -1 -1 -1 -1 -1
-1 -1 -1 -1 -1 -1 -1 -1 -1 -1 -1 -1 -1 1 117 202 278 366 468 576 675 758 814 849 857 842 814 786 766 760 770 781 792 796 797 789 772 751 734 730 733 752 777 800 810 812 800 788 779 782 837 898 986 1068 1140 1193 1220 1225 1211 1186 1154 1124 1099 1085 1080 1080 1081 1075 1060 1031 1013 1024 1092 1178 1250 1300 1324 1318 1273 1184 1046 850 601 332 134 8 -1 -1 -1 -1 -1 -1 23 -1 -1 -1 -1 -1 -1 -1 -1 -1 -1 -1 -1 -1 -1 207 406 557 652 690 666 602 550 550 605 683 754 803 821 818 804 790 785 790 802 818 835 849 866 889 922 968 1017 1070 1118 1157 1179 1187 1189 1189 1184 1141 1044 924 816 791 859 970 1072 1115 1096 1043 999 998 1041 1108 1183 1241 1278 1315 1342 1346 1340 1311 1260 1184 1083 962 824 673 501 302 83 -1 -1 -1 -1 -1
-1 -1 -1 -1 -1 -1 -1 -1 -1 -1 -1 -1 -1 -1 98 222 315 399 490 589 687 769 832 868 875 856 824 789 768 765 781 802 816 825 824 812 786 751 721 704 704 717 741 752 757 758 748 750 768 824 888 969 1041 1114 1169 1201 1210 1200 1181 1157 1131 1106 1089 1080 1074 1065 1048 1022 983 950 926 983 1075 1168 1243 1297 1323 1315 1265 1158 995 775 504 275 104 4 14 9 13 44 99 139 127 65 -1 -1 -1 -1 -1 -1 -1 -1 -1 -1 -1 -1 -1 127 352 533 656 716 721 685 652 646 674 731 788 825 837 831 814 800 791 789 793 804 816 828 842 865 907 956 1003 1046 1079 1097 1103 1100 1107 1119 1114 1075 990 881 800 779 844 957 1048 1089 1072 1019 974 976 1013 1078 1134 1179 1220 1255 1272 1286 1284 1267 1227 1165 1077 966 839 691 515 315 90 -1 -1 -1 -1 -1
-1 -1 -1 -1 -1 -1 -1 -1 -1 -1 -1 -1 -1 -1 73 209 332 429 518 608 699 780 844 884 890 869 828 795 772 776 796 822 843 854 853 836 801 758 720 699 707 720 722 728 734 743 764 782 818 880 953 1023 1094 1153 1191 1200 1180 1152 1126 1104 1080 1064 1054 1054 1050 1034 995 944 901 861 904 977 1076 1165 1241 1294 1320 1313 1259 1154 981 765 578 424 320 264 242 254 253 258 264 239 170 64 -1 -1 -1 -1 -1 -1 -1 -1 -1 -1 -1 -1 -1 48 275 480 632 722 757 751 735 731 750 784 821 845 845 830 808 788 775 766 767 772 781 794 809 849 894 940 980 1009 1022 1022 1011 1018 1034 1048 1044 1008 932 843 785 783 859 952 1033 1066 1043 989 935 934 977 1031 1081 1124 1157 1178 1203 1213 1218 1206 1175 1118 1033 924 797 644 469 267 50 -1 -1 -1 -1 -1
-1 -1 -1 -1 -1 -1 -1 -1 -1 -1 -1 -1 -1 -1 59 194 327 446 546 634 718 796 858 898 902 875 836 798 789 798 819 846 870 883 881 860 822 774 726 721 729 744 751 758 769 793 822 854 887 940 1004 1071 1129 1178 1201 1190 1142 1084 1045 1016 1004 995 1001 1010 1012 992 940 870 813 837 894 987 1075 1167 1237 1290 1319 1314 1268 1170 1031 866 737 651 584 536 509 481 457 420 363 272 128 -1 -1 -1 -1 -1 -1 20 91 123 116 84 24 -1 -1 32 212 416 590 711 777 800 802 802 816 835 853 857 844 816 786 761 744 736 732 737 750 766 803 845 892 929 953 960 951 933 930 941 962 979 975 937 874 803 770 809 881 967 1026 1044 1017 963 908 884 928 983 1027 1054 1078 1102 1120 1139 1142 1135 1106 1049 963 851 716 561 379 186 -1 -1 -1 -1 -1 -1
-1 -1 -1 -1 -1 -1 -1 -1 -1 -1 -1 -1 -1 -1 68 194 320 448 561 658 743 820 878 910 911 883 839 824 825 836 850 873 895 910 907 885 847 799 763 744 754 767 785 801 821 849 884 918 948 984 1037 1094 1146 1186 1202 1179 1119 1027 951 920 908 916 931 955 966 948 895 817 779 806 896 985 1078 1155 1231 1284 1318 1319 1285 1211 1103 990 910 850 799 752 702 649 578 494 380 215 41 -1 -1 -1 -1 -1 -1 59 152 213 244 242 225 181 145 134 231 382 551 691 783 832 852 861 870 879 878 862 831 794 756 732 713 709 711 719 737 772 814 858 896 920 920 900 873 858 854 874 898 912 906 875 822 774 772 830 911 979 1022 1025 994 940 879 842 879 929 960 978 990 1013 1036 1053 1061 1053 1026 970 878 758 614 450 274 81 -1 -1 -1 -1 -1 -1
-1 -1 -1 -1 -1 -1 -1 -1 -1 -1 -1 -1 -1 -1 83 197 326 445 567 672 765 842 899 929 926 895 871 870 874 881 889 905 920 932 929 912 878 844 814 793 774 785 801 823 848 878 912 947 976 1005 1043 1091 1142 1182 1197 1177 1112 1016 904 838 828 839 862 899 925 913 860 804 766 806 887 987 1070 1153 1217 1277 1314 1325 1303 1250 1176 1103 1046 1002 950 890 820 729 614 475 302 126 -1 -1 -1 -1 -1 -1 -1 23 142 231 294 337 357 359 341 328 341 429 546 676 784 851 889 907 914 913 896 863 818 772 735 712 711 716 723 736 757 792 837 875 901 905 881 839 808 791 798 818 841 848 840 813 781 761 793 856 928 985 1010 1003 970 918 851 806 829 863 881 883 890 914 941 959 968 962 935 878 782 654 500 331 151 -1 -1 -1 -1 -1 -1 -1
-1 -1 -1 -1 -1 -1 -1 -1 -1 -1 -1 -1 -1 -1 69 204 326 453 568 681 777 860 920 953 952 932 922 923 925 924 926 932 939 945 944 932 913 892 868 842 817 803 810 824 843 869 902 933 961 991 1027 1077 1132 1175 1195 1178 1123 1032 927 836 783 786 818 863 889 879 838 790 769 820 901 986 1075 1147 1217 1269 1311 1330 1321 1286 1239 1191 1147 1100 1043 965 869 739 589 396 208 38 38 59 91 81 21 -1 -1 -1 50 162 257 342 416 465 488 491 500 529 602 696 789 867 915 939 946 936 908 867 814 758 724 713 728 742 756 771 792 823 860 891 902 886 844 792 763 751 758 780 796 796 780 759 749 770 814 876 936 979 992 978 946 902 841 769 767 767 762 749 766 788 825 851 863 860 830 772 675 540 378 198 18 -1 -1 -1 -1 -1 -1 -1
-1 -1 -1 -1 -1 -1 -1 -1 -1 -1 -1 -1 -1 -1 20 184 336 461 581 689 793 875 942 980 990 982 975 974 967 960 951 946 946 947 947 944 936 924 906 886 861 840 830 825 828 843 865 891 920 956 1010 1074 1132 1178 1199 1186 1137 1060 968 875 810 772 795 825 848 837 808 771 795 845 922 1005 1081 1157 1217 1272 1313 1335 1335 1317 1285 1250 1208 1155 1088 998 877 741 557 364 193 172 203 253 272 252 185 65 -1 -1 -1 20 134 269 401 501 566 604 624 649 691 750 821 885 936 962 968 951 917 872 814 761 725 734 755 779 794 812 831 857 886 905 899 867 812 764 736 733 744 760 767 754 730 721 737 780 834 888 936 963 967 951 924 894 848 781 670 626 575 564 584 636 683 724 749 745 718 656 558 415 242 56 -1 -1 -1 -1 -1 -1 -1 -1
-1 -1 -1 -1 -1 -1 -1 -1 -1 1 -1 -1 -1 -1 -1 146 324 477 596 707 807 897 964 1009 1028 1027 1022 1012 998 979 958 944 935 932 936 939 939 933 924 912 896 878 860 846 833 830 840 861 896 949 1020 1085 1145 1187 1206 1193 1151 1085 1004 922 853 806 771 789 794 794 770 788 825 885 951 1025 1100 1163 1225 1273 1313 1337 1343 1332 1311 1278 1236 1181 1107 1011 899 753 592 434 357 359 393 420 422 386 311 197 64 -1 -1 -1 9 175 337 480 589 659 707 743 779 822 868 915 954 980 982 963 926 878 823 768 737 752 786 813 836 854 874 892 911 915 894 849 794 749 729 731 746 759 755 728 695 697 734 786 843 890 921 938 934 918 899 882 857 784 641 463 337 323 348 436 516 581 617 626 597 537 433 282 97 -1 -1 -1 -1 -1 -1 -1 -1 -1
-1 -1 -1 -1 -1 -1 -1 -1 -1 80 122 100 25 -1 -1 107 293 474 616 731 831 917 990 1035 1060 1065 1057 1040 1015 983 952 925 908 905 912 920 923 923 917 912 903 896 886 872 857 851 854 879 925 987 1050 1114 1165 1200 1212 1198 1159 1100 1030 956 890 829 780 746 757 756 784 820 868 922 986 1049 1113 1172 1225 1271 1308 1334 1344 1338 1318 1287 1245 1191 1124 1039 935 810 677 577 539 533 546 544 520 473 400 309 218 122 50 10 21 114 274 437 569 676 748 803 847 887 926 957 983 995 993 968 930 881 828 779 751 775 816 851 876 896 913 928 933 921 887 835 784 746 731 738 753 764 755 718 678 685 723 781 835 875 896 901 893 878 867 866 859 803 660 407 188 52 116 206 322 422 489 504 479 414 306 148 -1 -1 -1 -1 -1 -1 -1 -1 -1 -1
-1 -1 -1 -1 -1 -1 -1 -1 -1 104 201 234 201 119 45 74 273 460 625 753 858 945 1012 1061 1087 1092 1080 1053 1017 979 937 901 883 874 889 894 901 899 894 889 889 891 892 889 887 888 900 928 977 1036 1097 1147 1190 1213 1216 1196 1155 1099 1035 968 902 836 782 743 741 775 815 863 911 961 1014 1067 1119 1169 1215 1256 1296 1324 1338 1333 1313 1282 1244 1196 1140 1072 985 885 789 725 685 668 646 617 569 512 450 392 336 280 229 184 162 172 265 406 552 668 768 836 890 933 971 999 1013 1014 998 967 923 875 824 785 768 808 852 887 914 933 947 954 948 924 879 829 780 748 736 743 760 770 759 724 683 661 703 765 815 847 857 857 844 833 833 855 866 828 704 487 187 -1 -1 14 136 280 365 394 374 307 192 34 -1 -1 -1 -1 -1 -1 -1 -1 -1 -1
-1 -1 -1 -1 -1 -1 -1 -1 -1 73 219 316 343 304 233 188 257 450 620 764 878 966 1035 1083 1109 1111 1091 1053 1006 962 921 888 870 876 867 875 874 875 867 868 872 877 886 891 902 919 946 980 1027 1081 1135 1180 1209 1220 1211 1181 1136 1081 1019 953 884 828 778 779 782 808 851 898 944 989 1030 1070 1108 1147 1190 1237 1281 1313 1327 1324 1302 1271 1233 1195 1151 1097 1033 957 894 839 796 754 708 650 586 520 464 429 406 388 366 345 323 312 339 431 549 676 770 856 919 969 1004 1029 1037 1025 996 953 903 851 811 782 809 845 889 922 945 959 968 966 953 921 879 825 781 749 737 743 760 770 761 728 676 644 683 742 788 810 816 806 796 793 821 858 877 855 764 587 357 138 -1 -1 21 157 251 295 287 224 113 -1 -1 -1 -1 -1 -1 -1 -1 -1 -1 -1
-1 -1 -1 -1 -1 -1 -1 -1 -1 -1 184 335 427 453 422 372 357 446 614 767 890 987 1057 1104 1127 1124 1097 1052 993 940 909 887 892 888 878 859 860 857 869 876 883 885 884 890 906 935 971 1018 1064 1115 1163 1201 1219 1215 1190 1150 1100 1041 977 913 857 807 821 825 840 854 886 926 964 998 1026 1048 1076 1108 1164 1222 1268 1300 1314 1310 1287 1252 1210 1174 1139 1104 1060 1013 964 916 864 806 739 668 590 520 462 431 428 437 448 454 450 449 455 499 589 683 785 866 941 994 1030 1049 1050 1029 987 933 873 827 796 817 844 883 917 944 962 969 969 962 943 914 871 825 778 742 725 731 749 761 754 720 666 629 667 724 763 779 773 762 755 781 824 867 892 880 815 688 512 316 104 -1 -1 42 143 200 215 167 64 -1 -1 -1 -1 -1 -1 -1 -1 -1 -1 -1
-1 -1 -1 -1 -1 -1 -1 -1 -1 -1 105 298 447 537 566 548 518 526 620 767 900 1004 1077 1124 1143 1135 1105 1053 994 938 910 916 916 909 888 866 851 866 886 902 910 910 905 903 913 943 988 1037 1093 1140 1183 1212 1217 1196 1154 1100 1041 981 918 868 824 843 862 879 885 896 913 939 965 985 994 1005 1023 1077 1144 1207 1255 1285 1298 1293 1266 1221 1166 1120 1094 1078 1057 1031 996 953 896 829 758 674 599 526 463 417 416 435 469 498 521 533 549 578 632 714 796 884 954 1011 1048 1064 1058 1028 979 915 862 818 834 853 881 908 931 947 955 955 948 936 917 890 854 810 765 724 699 704 724 739 737 707 653 620 654 709 743 750 741 728 745 784 832 879 905 901 851 752 612 437 233 45 -1 -1 21 109 141 111 36 -1 -1 -1 -1 -1 -1 -1 -1 -1 -1 -1
-1 -1 -1 -1 -1 -1 -1 -1 -1 -1 10 229 415 557 642 677 672 657 685 782 912 1019 1095 1141 1158 1148 1115 1063 1003 962 945 940 937 920 894 868 858 879 905 927 938 942 937 932 939 955 998 1054 1109 1161 1199 1217 1208 1166 1102 1031 964 907 865 835 863 886 911 919 919 918 926 937 948 951 952 950 990 1062 1133 1195 1242 1271 1281 1272 1242 1191 1115 1044 1017 1011 1015 1007 988 952 901 834 754 677 598 527 462 413 381 403 440 483 520 552 581 616 670 738 820 897 969 1025 1062 1075 1064 1027 972 914 858 862 872 888 902 911 920 923 923 914 901 885 869 847 818 779 736 692 661 666 687 705 709 687 645 616 653 703 730 731 718 716 745 790 842 887 916 911 867 782 656 500 316 113 -1 -1 -1 -1 46 38 -1 -1 -1 -1 -1 -1 -1 -1 -1 -1 -1 -1
-1 -1 -1 -1 -1 -1 -1 -1 -1 -1 -1 157 361 534 667 746 782 783 785 839 934 1035 1110 1157 1173 1163 1130 1078 1026 990 968 955 940 916 891 868 875 892 916 938 953 962 965 967 968 986 1015 1069 1125 1175 1209 1219 1193 1130 1041 957 895 850 848 888 918 945 956 952 939 924 919 918 915 913 907 931 984 1052 1127 1186 1229 1253 1259 1249 1220 1167 1089 994 922 923 926 943 940 920 878 816 741 658 575 502 440 390 361 348 385 424 465 504 544 599 669 751 834 913 985 1038 1074 1084 1068 1027 972 912 899 893 896 892 887 881 874 871 861 847 831 816 800 788 764 733 694 652 618 621 643 664 668 654 630 618 665 706 723 716 704 716 752 801 851 896 920 912 864 775 651 497 322 122 -1 -1 -1 -1 -1 -1 -1 -1 -1 -1 -1 -1 -1 -1 -1 -1 -1 -1
-1 -1 -1 -1 -1 -1 -1 -1 -1 -1 -1 119 321 503 656 776 845 879 891 914 978 1057 1126 1173 1190 1179 1145 1096 1049 1009 974 946 925 907 882 884 889 898 912 929 945 959 972 982 992 1007 1038 1082 1138 1185 1217 1219 1182 1102 1003 912 870 887 919 956 988 1000 998 979 953 927 905 895 886 881 896 933 986 1056 1117 1173 1212 1229 1233 1222 1197 1154 1084 994 903 811 821 837 861 857 828 774 702 614 524 446 389 351 326 324 323 360 384 413 460 532 630 733 832 920 991 1049 1083 1093 1075 1035 979 945 922 904 878 853 831 811 801 788 778 761 746 728 725 717 703 679 649 611 578 580 596 615 621 616 604 643 682 714 722 711 701 720 759 812 864 902 921 905 847 752 620 465 281 90 -1 -1 -1 -1 -1 -1 -1 -1 -1 -1 -1 -1 -1 -1 -1 -1 -1 -1
-1 -1 -1 -1 -1 -1 -1 -1 -1 -1 0 142 324 496 653 781 883 942 975 1001 1040 1097 1150 1190 1206 1195 1161 1119 1069 1020 972 927 912 893 898 895 895 891 890 896 907 924 944 963 982 1009 1043 1093 1146 1194 1223 1224 1184 1106 1007 946 942 966 1003 1035 1051 1049 1034 1003 969 934 904 878 868 876 903 943 999 1056 1115 1159 1189 1199 1198 1186 1168 1138 1087 1010 900 783 698 723 755 765 748 707 637 547 451 381 329 305 306 296 318 319 330 342 379 461 573 698 813 914 994 1053 1091 1103 1088 1049 1008 972 939 887 831 781 747 727 709 703 687 674 652 648 649 652 645 631 605 575 551 539 554 567 577 579 616 658 702 724 725 710 701 721 767 819 872 911 924 900 838 742 614 447 271 96 -1 -1 -1 -1 -1 -1 -1 -1 -1 -1 -1 -1 -1 -1 -1 -1 -1 -1
-1 -1 -1 -1 -1 -1 -1 -1 -1 0 112 230 366 530 676 802 902 985 1036 1072 1107 1143 1185 1215 1225 1213 1181 1138 1089 1034 978 935 907 911 908 903 889 870 854 847 850 865 886 908 935 974 1029 1089 1148 1200 1232 1236 1205 1140 1068 1034 1033 1055 1080 1097 1099 1085 1060 1026 988 949 913 884 868 884 915 962 1009 1059 1106 1143 1161 1163 1151 1138 1127 1109 1076 1017 917 785 648 624 635 644 642 612 553 476 389 345 323 301 288 314 331 350 349 353 367 428 536 665 790 896 988 1053 1097 1115 1104 1076 1037 1000 951 888 804 742 703 678 659 641 638 607 591 587 593 600 606 595 569 548 528 524 528 539 555 593 635 683 718 736 732 714 704 725 771 827 878 917 929 906 848 756 634 491 330 195 104 46 -1 -1 -1 -1 -1 -1 -1 -1 -1 -1 -1 -1 -1 -1 -1 -1
-1 -1 -1 -1 -1 -1 -1 -1 -1 57 186 314 441 577 712 830 931 1011 1079 1126 1159 1194 1222 1241 1247 1231 1200 1158 1107 1052 999 960 938 926 916 898 873 843 820 803 806 814 826 850 872 926 1000 1077 1146 1202 1241 1253 1235 1193 1149 1118 1115 1122 1132 1134 1125 1104 1075 1040 1004 964 927 894 878 896 932 972 1013 1054 1089 1116 1130 1120 1097 1077 1067 1060 1047 1010 936 817 692 564 533 530 522 508 477 421 407 381 354 317 313 334 373 396 413 419 436 467 544 660 777 891 979 1056 1103 1126 1124 1099 1069 1028 980 914 848 793 755 724 696 669 629 617 588 561 560 576 585 575 550 536 536 540 547 557 581 623 669 709 738 749 740 720 708 730 776 832 884 921 935 916 866 786 682 558 431 323 235 165 94 0 -1 -1 -1 -1 -1 -1 -1 -1 -1 -1 -1 -1 -1 -1
-1 -1 -1 -1 -1 -1 -1 -1 -1 50 215 361 500 624 743 861 955 1041 1108 1164 1203 1234 1259 1271 1269 1252 1218 1175 1124 1072 1028 991 960 933 904 877 846 820 796 806 814 823 825 820 838 896 979 1062 1140 1205 1249 1271 1268 1245 1213 1183 1167 1158 1150 1138 1121 1098 1070 1040 1006 969 931 902 889 912 942 972 1001 1032 1058 1081 1090 1083 1045 1003 986 988 995 988 946 867 749 628 515 477 464 456 449 470 462 448 407 365 361 380 416 456 481 507 531 567 612 691 800 898 989 1059 1113 1141 1143 1127 1098 1064 1017 967 920 879 839 802 765 723 684 644 607 577 557 575 584 571 560 560 564 577 591 604 628 661 703 738 759 765 751 728 715 739 786 839 888 924 937 922 881 816 729 626 523 428 340 248 150 32 -1 -1 -1 -1 -1 -1 -1 -1 -1 -1 -1 -1 -1 -1
-1 -1 -1 -1 -1 -1 -1 -1 -1 -1 185 366 519 653 772 878 980 1060 1136 1193 1238 1269 1291 1298 1293 1270 1234 1188 1139 1090 1044 1001 961 916 873 839 816 795 807 826 847 861 867 860 861 893 973 1060 1139 1210 1261 1289 1296 1282 1255 1220 1189 1157 1129 1107 1086 1066 1042 1017 989 956 928 903 913 927 944 959 973 991 1013 1035 1058 1050 1009 938 889 892 920 948 947 903 821 714 623 564 541 530 540 547 546 516 473 433 427 444 471 516 556 591 628 669 710 764 844 933 1012 1077 1125 1156 1162 1150 1127 1096 1058 1018 983 946 903 858 811 761 713 662 620 581 587 596 598 594 594 597 602 617 635 656 678 706 734 764 782 781 761 734 722 748 797 849 894 924 934 920 885 830 755 669 577 482 381 272 146 -1 -1 -1 -1 -1 -1 -1 -1 -1 -1 -1 -1 -1 -1 -1
-1 -1 -1 -1 -1 -1 -1 -1 -1 -1 117 321 504 656 787 898 991 1082 1153 1217 1264 1299 1319 1323 1310 1282 1241 1193 1142 1090 1037 983 931 885 835 810 791 797 813 844 878 903 922 927 926 946 991 1073 1150 1220 1275 1307 1319 1308 1279 1239 1189 1136 1087 1051 1031 1012 993 974 955 935 914 922 928 936 937 933 934 942 960 996 1025 1025 981 905 815 785 835 900 935 925 875 804 740 695 664 648 644 640 618 583 544 516 501 510 539 576 625 671 716 755 800 850 908 980 1047 1105 1147 1171 1178 1168 1146 1116 1083 1050 1017 978 929 874 812 755 699 656 610 618 623 629 628 630 634 635 643 649 672 695 723 748 769 788 802 796 773 743 733 762 812 860 897 918 919 901 865 815 748 669 578 471 350 214 66 -1 -1 -1 -1 -1 -1 -1 -1 -1 -1 -1 -1 -1 -1 -1
-1 -1 -1 -1 -1 -1 -1 -1 -1 -1 29 248 451 627 777 901 1006 1091 1172 1234 1286 1322 1340 1338 1317 1281 1233 1180 1124 1063 1001 941 895 852 845 827 809 793 814 854 896 937 968 990 1004 1018 1050 1099 1173 1239 1290 1325 1337 1326 1295 1246 1190 1123 1062 1016 985 973 946 932 931 914 926 932 939 935 921 903 893 895 922 962 997 1004 965 880 776 712 766 854 914 929 906 865 821 784 754 734 719 700 672 636 607 585 572 574 596 634 683 733 780 826 870 918 971 1027 1086 1133 1170 1188 1190 1176 1149 1115 1082 1049 1016 972 916 848 773 707 665 632 645 654 665 665 663 664 666 666 668 678 692 723 755 783 805 819 824 812 782 757 751 785 830 868 890 894 882 853 812 760 694 613 513 390 232 83 -1 -1 -1 -1 -1 -1 -1 -1 -1 -1 -1 -1 -1 -1 -1 -1
-1 -1 -1 -1 -1 -1 -1 -1 -1 -1 -1 176 381 576 743 884 1004 1105 1180 1250 1303 1339 1355 1344 1311 1258 1199 1135 1074 1009 944 896 865 878 877 865 839 812 815 857 910 960 1005 1042 1069 1095 1118 1156 1205 1265 1310 1342 1352 1341 1308 1259 1197 1131 1072 1028 998 960 951 935 917 925 927 934 932 924 903 875 860 870 901 940 976 985 949 862 742 665 717 814 885 917 913 887 853 820 792 770 749 724 695 665 641 626 620 623 640 676 723 775 825 873 921 971 1019 1069 1118 1161 1188 1201 1194 1169 1127 1082 1039 1007 971 928 870 794 722 659 646 672 688 703 704 699 695 689 684 679 679 688 707 738 776 812 836 850 848 829 798 771 785 814 845 864 863 845 812 769 717 657 580 491 379 239 101 -1 -1 -1 24 77 93 81 29 -1 -1 -1 -1 -1 -1 -1 -1 -1
-1 -1 -1 -1 -1 -1 -1 -1 -1 -1 -1 119 335 523 705 863 990 1099 1189 1255 1314 1350 1361 1344 1294 1221 1132 1058 995 950 897 881 903 913 913 896 868 842 835 863 914 976 1030 1079 1119 1151 1185 1216 1251 1290 1333 1358 1366 1352 1319 1269 1208 1146 1094 1053 1018 992 967 948 931 921 917 914 911 901 882 860 848 863 892 928 959 966 934 848 718 633 680 771 844 887 894 877 845 812 782 760 738 715 690 664 642 634 634 643 663 697 744 798 850 901 953 1001 1049 1093 1139 1176 1201 1206 1190 1148 1082 1006 953 912 885 850 796 741 679 684 700 725 744 745 737 726 715 702 690 678 679 689 714 752 796 837 866 878 871 846 818 802 818 842 853 843 810 763 707 643 575 494 411 302 189 83 -1 6 45 114 177 200 189 140 56 -1 -1 -1 -1 -1 -1 -1 -1 -1
-1 -1 -1 -1 -1 -1 -1 -1 -1 -1 -1 135 313 512 676 837 975 1088 1183 1260 1318 1355 1364 1338 1276 1179 1079 984 945 924 935 936 947 949 935 910 886 866 860 876 920 979 1046 1102 1151 1193 1232 1265 1293 1324 1355 1374 1376 1361 1324 1274 1210 1149 1093 1051 1019 995 971 945 920 902 889 882 878 873 863 850 853 866 890 918 942 948 921 847 736 623 647 710 788 835 855 846 815 775 742 717 699 681 661 639 620 611 617 630 656 695 746 801 860 914 966 1018 1062 1108 1146 1184 1205 1205 1178 1121 1030 921 833 797 771 752 731 697 722 741 767 782 786 777 760 742 722 705 688 681 681 697 726 770 817 860 892 904 894 869 843 840 849 857 843 800 730 648 563 486 384 289 194 128 19 7 102 157 231 274 303 296 253 174 60 -1 -1 -1 -1 -1 -1 -1 -1 -1
-1 -1 -1 -1 -1 -1 -1 -1 -1 -1 -1 179 360 518 685 822 962 1081 1177 1260 1321 1358 1365 1334 1260 1169 1059 1022 994 997 1002 1005 993 969 935 903 882 872 874 893 929 983 1041 1106 1163 1214 1259 1296 1325 1351 1372 1386 1384 1362 1327 1270 1206 1130 1057 1010 985 964 944 921 897 878 871 866 862 859 854 857 859 867 881 900 920 926 909 858 770 683 600 649 704 764 799 807 783 735 692 666 648 638 621 603 587 581 582 599 628 676 731 794 854 913 965 1014 1061 1105 1148 1183 1203 1200 1167 1099 996 879 776 720 700 697 704 751 781 809 819 820 812 796 772 745 722 704 700 695 696 711 744 785 838 884 915 926 916 894 876 872 869 854 815 738 630 504 402 303 232 118 71 47 122 189 271 350 385 406 396 361 290 189 58 -1 -1 -1 -1 -1 -1 -1 -1 -1
-1 -1 -1 -1 -1 -1 -1 -1 -1 -1 35 221 394 557 696 839 957 1074 1176 1255 1322 1360 1368 1339 1272 1181 1135 1103 1096 1089 1081 1058 1020 968 916 880 863 864 875 899 934 977 1029 1087 1152 1214 1266 1309 1342 1367 1384 1392 1385 1366 1327 1276 1203 1113 1022 957 929 920 911 894 889 896 896 893 885 878 870 861 853 850 850 862 879 891 889 862 807 722 646 576 620 671 728 761 757 719 662 624 608 597 586 573 563 557 559 570 601 649 709 772 833 891 944 993 1039 1088 1134 1173 1195 1194 1161 1097 1012 916 830 771 753 756 784 818 848 856 851 839 821 799 774 744 726 723 724 720 719 731 756 800 850 899 930 944 938 922 905 891 872 834 764 666 529 400 273 219 181 210 212 255 313 397 461 499 511 492 460 396 306 189 49 -1 -1 -1 -1 -1 -1 -1 -1 -1
-1 -1 -1 -1 -1 -1 -1 -1 -1 -1 30 215 404 572 723 849 971 1073 1173 1257 1318 1361 1373 1353 1304 1251 1214 1199 1186 1169 1139 1093 1028 956 894 863 852 852 870 892 919 952 995 1054 1124 1193 1256 1305 1341 1367 1384 1391 1387 1369 1335 1286 1217 1126 1024 945 908 899 900 917 929 942 948 941 926 905 878 848 819 796 790 794 817 839 852 845 815 759 679 605 539 584 648 713 738 716 669 619 585 575 567 564 559 560 563 565 586 628 683 739 793 845 894 942 993 1048 1103 1147 1179 1187 1168 1123 1063 999 938 890 860 861 874 889 892 881 859 834 812 794 774 762 755 757 756 752 746 747 769 806 855 901 937 954 953 938 916 890 852 793 704 583 467 350 346 344 369 400 439 475 521 562 591 603 587 550 493 410 300 168 20 -1 -1 -1 -1 -1 -1 -1 -1 -1
-1 -1 -1 -1 -1 -1 -1 -1 -1 -1 -1 190 378 559 721 859 970 1079 1172 1253 1319 1361 1380 1372 1346 1314 1288 1270 1253 1229 1182 1114 1034 956 907 882 871 863 863 879 891 909 952 1018 1094 1169 1237 1291 1332 1358 1374 1382 1380 1367 1342 1301 1243 1164 1073 996 951 940 951 970 991 1001 1003 988 956 912 858 800 743 706 683 700 727 764 792 805 797 763 704 620 542 507 586 673 722 721 682 630 589 567 568 574 578 582 588 590 589 615 653 699 742 785 824 866 916 975 1037 1097 1146 1173 1175 1155 1122 1082 1039 997 967 948 944 934 914 881 846 813 795 786 786 790 796 796 793 779 763 756 769 803 849 899 936 957 957 938 907 863 808 735 635 532 437 465 493 532 561 586 609 632 653 668 672 659 628 574 498 396 266 116 -1 -1 -1 -1 -1 -1 -1 -1 -1 -1
-1 -1 -1 -1 -1 -1 -1 -1 -1 -1 -1 142 340 518 688 836 968 1074 1172 1252 1316 1362 1387 1390 1378 1359 1337 1319 1298 1266 1217 1144 1062 1001 962 938 916 901 888 876 876 888 930 995 1073 1155 1223 1279 1317 1341 1356 1363 1362 1355 1339 1312 1268 1207 1138 1072 1032 1017 1023 1041 1054 1056 1045 1013 959 883 803 713 637 578 559 575 620 670 709 740 752 737 694 623 533 482 543 644 707 722 692 644 596 572 579 597 610 618 624 627 620 610 634 662 694 722 747 775 813 871 942 1023 1098 1150 1174 1175 1164 1142 1113 1079 1043 1013 987 954 908 860 817 789 779 789 808 827 835 836 819 796 766 754 760 791 842 891 931 953 953 931 887 825 748 668 589 512 543 583 635 670 691 702 708 714 718 715 703 677 633 567 474 349 197 24 -1 -1 -1 -1 -1 -1 -1 -1 -1 -1
-1 -1 -1 -1 -1 -1 -1 -1 -1 -1 -1 106 287 474 638 803 942 1065 1161 1246 1312 1360 1389 1400 1395 1379 1359 1340 1318 1287 1243 1184 1123 1076 1041 1012 988 963 938 918 907 914 939 1000 1075 1150 1220 1269 1302 1322 1329 1332 1331 1328 1321 1309 1283 1245 1196 1150 1116 1098 1099 1105 1105 1093 1062 1010 932 830 716 623 532 499 484 485 523 561 609 656 683 683 655 594 512 465 525 629 699 720 700 651 605 579 591 618 643 659 668 668 655 637 618 636 654 673 689 700 724 769 853 954 1048 1118 1158 1178 1182 1175 1157 1129 1093 1055 1010 954 888 828 787 771 782 808 838 864 875 864 836 797 765 746 756 789 833 884 924 948 947 920 872 798 713 631 579 606 639 689 726 747 752 748 740 731 723 711 693 662 611 534 425 280 98 -1 -1 -1 -1 -1 -1 -1 -1 -1 -1 -1
-1 -1 -1 -1 -1 -1 -1 -1 -1 -1 -1 62 265 430 607 761 910 1039 1147 1231 1302 1351 1385 1402 1397 1375 1349 1326 1307 1285 1258 1221 1185 1153 1122 1094 1066 1038 1011 991 977 977 995 1032 1095 1164 1222 1263 1286 1294 1293 1287 1284 1283 1286 1287 1282 1266 1242 1213 1188 1171 1162 1155 1137 1105 1054 978 879 754 643 555 563 554 538 518 471 467 513 558 597 610 590 536 480 457 535 627 698 722 702 660 610 587 601 638 674 700 711 712 696 666 640 627 639 655 667 680 699 738 804 904 1001 1080 1133 1164 1181 1187 1178 1155 1121 1075 1018 945 872 808 771 771 801 841 877 900 904 884 840 797 759 745 763 800 842 883 923 944 943 918 868 803 732 676 668 689 724 751 766 765 752 733 713 696 681 669 652 623 571 487 363 199 13 -1 -1 -1 -1 -1 -1 -1 -1 -1 -1 -1
-1 -1 -1 -1 -1 -1 -1 -1 -1 -1 -1 80 235 427 582 737 879 1012 1123 1214 1284 1342 1381 1398 1388 1354 1309 1275 1257 1248 1241 1233 1224 1211 1192 1169 1143 1119 1094 1072 1062 1061 1071 1098 1138 1185 1228 1254 1263 1258 1244 1231 1221 1220 1230 1247 1260 1267 1266 1255 1240 1224 1206 1182 1145 1089 1012 917 800 692 596 627 655 668 645 590 522 461 430 467 507 523 503 470 430 476 548 635 696 722 709 668 626 605 622 659 702 731 751 752 737 709 681 663 665 674 691 711 739 776 821 883 968 1041 1099 1141 1169 1183 1183 1167 1133 1084 1018 945 870 803 776 792 834 881 918 935 927 893 846 793 757 749 779 823 863 900 928 947 945 921 882 832 785 760 754 761 768 769 755 733 705 674 646 624 612 604 592 569 523 437 309 146 -1 -1 -1 -1 -1 -1 -1 -1 -1 -1 -1 -1
-1 -1 -1 -1 -1 -1 -1 -1 -1 -1 -1 59 256 409 581 726 863 984 1096 1188 1268 1330 1373 1392 1379 1332 1262 1193 1169 1166 1182 1202 1223 1234 1232 1223 1206 1187 1170 1155 1144 1146 1152 1167 1186 1210 1229 1237 1230 1213 1190 1164 1147 1142 1162 1187 1217 1248 1268 1275 1269 1253 1226 1184 1120 1037 938 827 732 639 684 727 767 768 733 662 572 486 423 409 435 432 422 395 428 479 561 637 695 723 717 688 654 642 656 691 728 763 781 788 777 757 730 712 713 722 740 771 808 848 882 915 958 1020 1073 1118 1152 1176 1183 1170 1136 1085 1017 943 865 815 800 831 880 925 956 962 941 904 852 808 769 759 793 846 892 925 946 952 944 922 893 862 835 818 808 794 772 741 704 664 625 589 557 539 534 530 528 516 479 404 286 147 53 -1 -1 -1 -1 -1 -1 -1 -1 -1 -1 -1
-1 -1 -1 -1 -1 -1 -1 -1 -1 -1 -1 72 245 428 575 730 855 973 1073 1167 1248 1316 1362 1385 1374 1328 1240 1134 1055 1049 1078 1130 1176 1212 1234 1244 1243 1238 1229 1222 1217 1214 1216 1219 1221 1220 1217 1206 1187 1165 1135 1096 1063 1064 1080 1118 1166 1214 1251 1276 1280 1262 1221 1157 1065 950 838 744 672 732 785 841 862 845 789 703 605 509 467 444 404 385 365 380 418 492 565 637 692 724 731 715 694 686 694 722 757 788 810 817 812 796 774 759 757 773 796 829 870 911 946 972 993 1019 1063 1104 1141 1169 1179 1168 1135 1081 1014 930 867 832 855 892 932 971 989 984 957 914 874 831 790 771 804 865 918 950 962 955 935 909 889 872 857 843 824 791 740 680 625 576 536 498 474 463 460 463 468 472 451 395 314 232 167 115 63 -1 -1 -1 -1 -1 -1 -1 -1 -1
-1 -1 -1 -1 -1 -1 -1 -1 -1 -1 -1 72 270 433 597 729 864 968 1069 1155 1237 1302 1350 1376 1373 1333 1255 1142 1013 934 964 1015 1086 1145 1190 1222 1243 1255 1261 1264 1262 1259 1252 1242 1226 1206 1183 1161 1139 1120 1088 1040 1000 992 1016 1060 1120 1179 1231 1268 1279 1255 1199 1108 989 863 743 709 774 832 901 936 936 897 825 730 628 569 538 505 461 408 382 379 438 506 576 637 691 725 741 739 731 728 735 752 782 810 832 839 835 822 803 788 788 803 830 866 908 950 987 1013 1029 1045 1070 1106 1140 1164 1173 1162 1128 1073 996 925 867 886 920 961 995 1015 1021 1004 970 932 891 849 806 787 824 888 941 970 972 949 914 879 861 854 848 836 808 760 689 606 543 500 465 446 433 425 419 416 429 443 443 418 373 325 276 219 146 56 -1 -1 -1 -1 -1 -1 -1 -1
-1 -1 -1 -1 -1 -1 -1 -1 -1 -1 -1 118 290 471 617 756 870 982 1074 1160 1231 1292 1338 1365 1368 1343 1284 1185 1061 947 853 896 957 1036 1101 1157 1199 1232 1256 1271 1276 1271 1257 1232 1197 1159 1125 1100 1089 1076 1052 1013 967 953 974 1022 1088 1154 1214 1257 1271 1246 1173 1064 935 814 798 825 886 953 994 1010 989 935 859 765 688 643 616 580 521 454 399 420 468 530 590 643 686 721 742 749 751 754 763 777 800 824 842 849 845 831 811 796 791 804 833 872 914 957 995 1022 1042 1058 1078 1106 1136 1157 1164 1151 1118 1059 981 902 906 944 990 1025 1049 1059 1049 1022 983 940 897 851 816 809 860 918 963 983 972 936 884 836 816 813 815 805 773 715 634 549 490 471 472 468 458 447 431 414 407 431 452 454 434 404 358 290 203 96 -1 -1 -1 -1 -1 -1 -1 -1
-1 -1 -1 -1 -1 -1 -1 -1 -1 -1 18 179 345 504 657 783 898 996 1090 1165 1232 1283 1323 1349 1358 1346 1307 1234 1129 1000 878 774 823 887 975 1049 1113 1167 1213 1244 1258 1252 1228 1187 1134 1084 1047 1034 1032 1034 1027 1001 965 940 957 1008 1069 1137 1199 1244 1262 1238 1170 1055 939 906 917 958 1008 1049 1070 1062 1024 965 891 816 756 722 687 638 569 486 426 450 508 560 607 646 680 707 728 740 748 755 767 783 802 821 837 844 841 827 806 783 770 785 812 851 891 932 968 998 1019 1039 1062 1092 1122 1143 1149 1135 1100 1045 964 910 940 1002 1050 1082 1095 1092 1070 1032 985 935 884 847 825 863 908 955 983 986 960 911 843 786 761 767 772 763 728 668 595 525 518 521 529 531 521 494 461 424 410 435 475 494 491 464 414 337 237 118 -1 -1 -1 -1 -1 -1 -1 -1
-1 -1 -1 -1 -1 -1 -1 -1 -1 -1 102 265 412 556 694 825 931 1028 1105 1175 1227 1270 1301 1324 1338 1337 1315 1264 1181 1070 934 804 685 741 812 905 987 1064 1135 1187 1213 1208 1178 1119 1047 993 963 962 974 996 1006 993 963 941 958 1002 1067 1129 1190 1236 1258 1244 1186 1099 1038 1028 1045 1076 1105 1123 1121 1094 1046 987 925 864 823 783 741 683 603 510 449 475 535 584 619 644 664 682 698 709 716 727 741 759 779 796 812 821 821 810 787 756 734 742 779 815 848 884 917 942 963 985 1013 1053 1091 1119 1126 1113 1078 1022 966 932 989 1051 1098 1122 1127 1112 1077 1028 974 912 866 838 877 918 962 989 995 978 937 872 797 730 709 719 729 722 689 638 577 574 581 599 608 604 581 539 482 440 422 461 506 535 536 508 450 361 246 114 -1 -1 -1 -1 -1 -1 -1 -1
-1 -1 -1 -1 -1 -1 -1 -1 -1 37 199 349 493 620 747 860 968 1052 1124 1177 1215 1240 1260 1283 1303 1315 1308 1276 1220 1130 1010 862 724 601 655 727 828 936 1040 1115 1154 1156 1117 1044 961 907 886 892 925 962 983 978 960 946 966 1011 1063 1126 1182 1231 1259 1256 1219 1170 1143 1137 1152 1166 1177 1172 1151 1108 1056 1001 945 900 863 824 779 718 637 542 472 496 549 597 621 631 637 646 655 658 662 668 687 706 730 752 770 781 786 779 755 712 680 698 745 778 802 825 850 871 887 905 941 991 1043 1083 1101 1092 1060 1006 959 989 1036 1092 1130 1150 1146 1120 1071 1007 939 890 849 882 928 976 1004 1009 993 954 899 832 753 685 666 678 696 694 673 635 633 641 663 679 680 666 629 573 508 445 448 489 542 572 571 535 463 359 227 72 -1 -1 -1 -1 -1 -1 -1 -1
-1 -1 -1 -1 -1 -1 -1 -1 -1 140 291 434 564 689 801 905 994 1070 1125 1158 1174 1179 1193 1219 1254 1282 1292 1282 1244 1174 1072 943 789 648 511 561 676 819 950 1044 1098 1101 1059 978 892 841 824 842 885 935 964 964 949 959 984 1021 1070 1121 1177 1223 1256 1268 1256 1235 1223 1223 1227 1230 1223 1199 1160 1112 1055 997 948 908 873 839 796 743 670 583 515 506 559 598 616 608 602 599 599 596 584 593 608 637 665 691 714 728 735 732 703 664 626 675 720 752 765 772 783 798 806 820 858 915 981 1038 1072 1080 1058 1023 1002 1028 1076 1119 1151 1164 1155 1116 1052 974 908 863 893 934 987 1021 1030 1012 971 916 854 788 720 660 633 649 676 692 686 693 701 720 737 746 737 706 656 593 522 473 465 524 577 602 591 542 452 327 173 -1 -1 -1 -1 -1 -1 -1 -1 -1
-1 -1 -1 -1 -1 -1 -1 -1 71 228 371 506 629 739 843 933 1007 1061 1094 1101 1087 1084 1094 1145 1202 1245 1271 1274 1251 1199 1118 1005 866 697 542 455 575 739 876 985 1043 1051 1006 929 848 802 792 812 862 914 950 955 949 965 994 1025 1064 1111 1157 1206 1247 1273 1283 1283 1279 1278 1276 1266 1243 1204 1156 1098 1034 972 923 886 856 825 792 750 693 627 566 555 568 601 613 598 563 548 538 529 519 509 537 556 584 621 650 663 669 664 652 609 638 666 719 745 747 740 737 743 743 761 793 846 913 988 1047 1077 1078 1066 1059 1066 1099 1133 1159 1170 1153 1104 1025 947 885 911 949 1001 1041 1057 1042 998 935 867 801 741 685 646 625 646 680 708 733 752 773 788 795 791 765 719 659 586 529 487 517 559 604 617 593 525 416 266 89 -1 -1 -1 -1 -1 -1 -1 -1 -1
-1 -1 -1 -1 -1 -1 -1 -1 119 274 423 551 666 769 854 929 985 1016 1018 989 956 937 994 1076 1155 1209 1241 1250 1239 1205 1140 1048 920 767 595 452 518 658 812 925 991 1001 962 891 825 788 782 808 850 906 948 960 953 968 987 1011 1041 1078 1124 1174 1225 1266 1293 1306 1310 1308 1298 1275 1240 1191 1132 1061 990 926 878 842 814 791 767 740 704 659 625 606 611 620 622 596 557 506 491 477 480 504 491 501 516 560 573 576 586 590 578 636 674 710 739 759 756 742 732 721 725 728 748 784 854 943 1023 1076 1103 1108 1106 1106 1114 1136 1157 1166 1146 1087 1009 928 936 971 1024 1064 1087 1080 1039 969 887 812 747 695 656 632 648 674 708 746 779 810 829 839 832 808 766 706 633 570 516 538 564 596 616 610 568 482 349 175 -1 -1 -1 -1 -1 -1 -1 -1 -1 -1
-1 -1 -1 -1 -1 -1 -1 -1 124 285 427 559 666 757 833 885 918 919 879 822 770 793 895 1018 1108 1169 1202 1214 1212 1190 1143 1064 958 823 663 519 449 585 743 865 936 953 922 868 815 787 790 815 859 909 953 973 971 960 971 982 998 1029 1075 1130 1193 1245 1285 1308 1317 1312 1294 1262 1217 1158 1088 1008 929 867 823 792 772 749 735 718 699 681 668 661 657 657 645 614 555 506 462 476 503 515 529 514 530 514 516 516 516 518 571 640 716 763 788 801 797 780 758 739 731 736 734 757 818 908 1000 1075 1119 1139 1137 1130 1127 1135 1151 1160 1139 1085 1003 989 1003 1049 1091 1122 1124 1092 1025 932 835 748 695 661 642 664 688 722 759 794 830 854 869 864 840 797 740 667 600 538 553 573 596 606 599 569 507 404 253 60 -1 -1 -1 -1 -1 -1 -1 -1 -1 -1
-1 -1 -1 -1 -1 -1 -1 -1 92 248 393 514 616 697 757 793 797 756 679 597 577 676 833 963 1067 1126 1155 1170 1171 1157 1122 1060 969 858 722 565 439 518 661 799 882 905 887 848 811 792 803 835 881 929 970 993 991 977 962 960 967 992 1035 1093 1157 1218 1265 1294 1303 1295 1269 1226 1176 1110 1032 949 868 810 778 758 745 731 708 693 684 683 692 702 704 697 683 644 583 509 474 484 524 559 573 583 563 563 535 542 541 524 546 639 733 805 849 863 866 848 817 788 779 767 770 770 809 891 988 1076 1133 1157 1153 1138 1127 1130 1142 1154 1144 1096 1068 1063 1091 1124 1155 1169 1152 1097 1009 900 789 698 652 645 683 710 745 779 816 851 875 890 887 866 824 761 690 624 558 563 573 587 585 571 538 481 396 279 122 -1 -1 -1 -1 -1 -1 -1 -1 -1 -1 -1
-1 -1 -1 -1 -1 -1 -1 -1 18 169 303 415 504 575 622 641 610 530 426 358 443 630 794 938 1026 1080 1109 1115 1117 1105 1081 1034 962 864 741 595 474 431 584 736 827 860 854 831 809 802 820 860 907 957 994 1019 1023 1009 989 979 979 982 1016 1066 1130 1192 1242 1272 1280 1262 1226 1175 1118 1051 974 892 826 781 764 758 752 737 708 681 670 678 697 724 745 748 731 694 631 555 520 514 547 596 632 642 643 622 626 610 608 583 590 634 738 837 902 938 948 936 908 875 850 846 832 840 848 907 1004 1093 1155 1172 1160 1136 1124 1125 1137 1158 1164 1154 1142 1151 1172 1196 1212 1209 1172 1102 1000 876 761 683 647 683 729 774 806 841 877 902 916 912 891 849 789 716 643 578 578 573 571 553 524 480 422 343 228 106 -1 -1 -1 -1 -1 -1 -1 -1 -1 -1 -1 -1
-1 -1 -1 -1 -1 -1 -1 -1 -1 38 154 255 337 395 428 417 364 266 179 203 406 625 809 923 1001 1037 1045 1050 1043 1036 1020 987 928 840 722 580 457 404 537 689 779 817 821 813 805 812 837 878 929 978 1020 1044 1058 1052 1037 1025 1017 1012 1013 1056 1115 1173 1220 1248 1246 1218 1167 1107 1046 984 915 856 809 798 797 796 790 766 731 697 677 673 693 730 771 796 791 760 707 642 592 582 596 638 683 713 716 720 702 706 686 681 668 696 762 861 956 1011 1036 1040 1017 987 963 940 945 931 945 975 1051 1135 1186 1198 1169 1145 1132 1135 1150 1173 1202 1219 1224 1233 1247 1260 1262 1238 1185 1100 984 862 750 676 690 735 791 836 872 903 930 948 945 923 882 824 753 677 612 600 588 565 518 461 400 339 258 162 65 -1 -1 -1 -1 -1 -1 -1 -1 -1 -1 -1 -1 -1
-1 -1 -1 -1 -1 -1 -1 -1 -1 -1 -1 52 119 161 172 149 87 29 26 219 448 673 834 931 966 973 966 956 955 947 942 920 872 785 665 517 385 429 547 660 736 771 785 790 796 814 842 880 927 978 1026 1064 1084 1094 1088 1082 1069 1052 1043 1065 1112 1165 1206 1225 1212 1167 1100 1021 967 915 870 834 835 848 862 865 852 825 785 745 708 690 690 723 779 830 853 837 800 750 700 673 681 709 750 785 811 809 813 792 792 778 781 792 839 918 1004 1084 1132 1146 1142 1116 1086 1075 1059 1065 1056 1085 1136 1197 1242 1241 1211 1182 1164 1166 1183 1216 1253 1284 1302 1309 1313 1314 1297 1254 1182 1082 962 836 738 689 734 799 855 903 937 962 979 980 965 929 874 809 734 669 637 614 584 522 423 321 239 174 115 16 -1 23 62 100 105 47 -1 -1 -1 -1 -1 -1 -1 -1
-1 -1 -1 -1 -1 -1 -1 -1 -1 -1 -1 -1 -1 -1 -1 -1 -1 -1 87 296 534 729 867 932 929 889 852 837 837 850 852 843 800 713 577 439 354 443 548 635 687 717 736 752 775 794 816 843 886 942 1004 1063 1106 1126 1138 1135 1127 1109 1097 1099 1127 1168 1199 1207 1183 1122 1037 949 884 859 838 847 872 906 932 944 933 904 864 817 770 734 712 723 775 846 898 916 898 863 824 791 785 804 831 872 905 923 914 915 896 896 898 919 955 1010 1088 1166 1226 1259 1265 1251 1226 1206 1202 1185 1195 1206 1241 1283 1313 1314 1288 1250 1228 1221 1240 1278 1319 1355 1372 1379 1373 1354 1316 1251 1159 1046 927 808 718 727 789 862 923 967 996 1012 1014 1004 976 930 874 808 748 698 661 618 555 456 338 200 141 98 68 101 135 182 229 233 195 110 -1 -1 -1 -1 -1 -1 -1 -1
-1 -1 -1 -1 -1 -1 -1 -1 -1 -1 -1 -1 -1 -1 -1 -1 -1 -1 182 417 619 788 899 939 901 806 722 699 707 737 763 761 730 642 500 350 361 430 521 583 620 648 672 702 725 736 739 751 798 872 963 1047 1113 1156 1173 1185 1182 1171 1154 1152 1164 1185 1201 1198 1163 1096 1006 911 847 818 825 855 904 953 994 1015 1016 992 955 909 858 810 775 755 784 853 932 982 992 977 951 924 904 909 933 962 1007 1033 1043 1026 1028 1019 1029 1057 1086 1135 1191 1266 1324 1365 1388 1386 1367 1348 1335 1331 1318 1334 1356 1384 1408 1407 1383 1346 1309 1301 1316 1353 1397 1425 1440 1439 1420 1379 1317 1229 1118 993 873 785 735 784 859 929 985 1024 1043 1047 1035 1010 971 924 870 816 765 718 669 606 512 409 279 260 232 223 241 279 323 344 347 312 235 126 -1 -1 -1 -1 -1 -1 -1 -1
-1 -1 -1 -1 -1 -1 -1 -1 -1 -1 -1 -1 -1 -1 -1 -1 -1 107 327 526 709 847 933 952 893 775 635 566 584 630 667 687 667 592 458 325 328 385 454 502 535 562 600 628 636 624 609 620 687 800 923 1027 1115 1172 1209 1223 1232 1226 1214 1206 1208 1212 1212 1194 1154 1094 1014 928 853 816 816 855 912 977 1031 1070 1086 1079 1051 1009 960 913 866 837 833 885 962 1034 1077 1086 1072 1054 1034 1026 1042 1073 1108 1148 1164 1168 1154 1162 1175 1188 1223 1263 1320 1374 1436 1482 1503 1519 1507 1491 1478 1459 1454 1452 1472 1494 1505 1506 1482 1448 1409 1391 1406 1438 1474 1498 1500 1485 1446 1384 1294 1184 1061 928 821 758 806 864 938 999 1042 1066 1073 1059 1030 991 946 899 853 808 764 719 663 585 495 385 378 372 389 406 425 445 457 447 406 334 225 93 -1 -1 -1 -1 -1 -1 -1 -1
-1 -1 -1 -1 -1 -1 -1 -1 -1 -1 -1 -1 -1 -1 -1 -1 97 269 457 640 789 904 969 972 908 784 632 505 491 526 581 613 613 560 463 361 274 313 356 402 431 480 517 528 505 482 474 511 624 766 904 1022 1114 1186 1232 1260 1270 1273 1265 1254 1245 1235 1219 1193 1154 1102 1040 967 893 846 836 848 905 971 1043 1098 1133 1144 1134 1106 1066 1022 981 943 933 955 1020 1090 1148 1181 1188 1177 1165 1152 1162 1188 1221 1261 1294 1303 1304 1300 1313 1335 1354 1396 1442 1502 1553 1595 1628 1637 1644 1633 1614 1597 1574 1575 1582 1601 1609 1599 1583 1549 1516 1493 1498 1522 1550 1560 1547 1509 1448 1359 1246 1119 984 868 781 814 874 956 1018 1064 1089 1093 1078 1043 996 943 894 850 813 778 743 703 650 580 490 473 476 501 520 535 548 549 529 485 411 308 177 26 -1 -1 -1 -1 -1 -1 -1 -1
-1 -1 -1 -1 -1 -1 -1 -1 -1 -1 -1 -1 -1 49 121 193 282 416 581 734 863 954 1001 995 933 817 666 528 429 443 493 551 569 538 470 377 290 224 260 285 352 407 420 405 386 361 410 535 655 787 915 1028 1124 1196 1250 1283 1303 1307 1304 1290 1271 1245 1218 1184 1148 1109 1065 1009 951 905 878 878 889 955 1025 1096 1149 1181 1190 1181 1157 1127 1090 1064 1044 1063 1106 1164 1219 1263 1290 1293 1285 1280 1281 1302 1338 1379 1413 1443 1448 1451 1451 1468 1493 1523 1573 1621 1671 1714 1740 1763 1764 1763 1745 1724 1703 1687 1691 1699 1706 1695 1672 1648 1618 1596 1589 1604 1613 1605 1571 1507 1418 1303 1171 1031 912 816 842 895 972 1034 1085 1112 1114 1095 1055 997 930 866 813 778 751 727 704 680 642 590 556 555 574 596 612 620 616 594 546 471 369 244 97 -1 -1 -1 -1 -1 -1 -1 -1 -1
-1 -1 -1 -1 -1 -1 -1 -1 -1 -1 -1 43 124 202 289 365 450 551 683 812 914 989 1024 1015 958 857 722 577 450 382 434 497 523 510 458 380 289 207 168 213 281 322 334 302 319 393 491 607 738 845 947 1048 1135 1207 1259 1299 1322 1331 1327 1311 1284 1249 1205 1167 1132 1105 1076 1042 1003 969 943 924 927 932 999 1066 1134 1181 1208 1220 1220 1207 1192 1169 1163 1167 1201 1245 1296 1341 1375 1395 1400 1399 1400 1413 1446 1488 1529 1563 1591 1591 1596 1601 1624 1658 1694 1739 1781 1820 1854 1871 1883 1880 1868 1845 1823 1804 1796 1800 1800 1787 1766 1739 1713 1689 1680 1670 1664 1630 1567 1474 1354 1217 1070 951 851 879 929 1003 1063 1110 1132 1134 1111 1064 999 925 843 767 717 695 679 668 661 652 641 627 626 632 652 668 676 673 650 602 525 421 296 152 -1 -1 -1 -1 -1 -1 -1 -1 -1 -1
-1 -1 -1 -1 -1 -1 -1 -1 -1 -1 -1 110 212 312 403 494 575 666 763 865 947 1005 1034 1027 980 895 781 648 506 381 393 432 470 468 432 362 275 196 137 168 212 257 258 329 391 481 586 696 801 899 983 1064 1143 1208 1262 1300 1325 1336 1332 1315 1285 1243 1195 1145 1109 1088 1073 1058 1043 1023 1009 994 978 980 971 1037 1091 1145 1183 1220 1246 1261 1262 1261 1257 1271 1289 1327 1369 1414 1454 1481 1500 1509 1512 1527 1552 1589 1631 1675 1709 1727 1725 1736 1748 1781 1819 1849 1884 1923 1952 1979 1988 1990 1979 1959 1935 1915 1900 1896 1890 1875 1853 1827 1797 1776 1753 1733 1696 1636 1540 1414 1267 1108 981 877 918 973 1044 1103 1145 1162 1157 1129 1077 1004 915 833 762 689 654 630 623 617 617 622 639 659 680 700 715 730 725 709 665 589 482 352 206 48 -1 -1 -1 -1 -1 -1 -1 -1 -1 -1
-1 -1 -1 -1 -1 -1 -1 -1 -1 -1 -1 121 254 366 473 566 656 737 820 894 961 1009 1034 1031 997 931 838 723 586 461 352 374 394 413 387 328 244 170 139 123 173 194 287 364 460 544 639 733 827 909 987 1061 1131 1194 1245 1284 1307 1318 1318 1305 1277 1237 1185 1133 1092 1072 1063 1063 1061 1062 1060 1059 1050 1029 1027 1009 1060 1092 1144 1198 1248 1287 1313 1325 1337 1351 1373 1397 1434 1477 1517 1554 1580 1601 1618 1626 1649 1682 1725 1773 1813 1838 1853 1853 1873 1898 1926 1956 1983 2016 2048 2071 2085 2085 2079 2059 2037 2017 1999 1984 1976 1961 1935 1907 1876 1844 1816 1775 1715 1622 1491 1332 1158 1013 898 939 1009 1091 1150 1189 1206 1198 1162 1104 1028 940 838 758 713 700 668 638 600 593 588 605 640 679 720 753 774 777 769 734 668 571 438 280 111 -1 -1 -1 -1 -1 -1 -1 -1 -1 -1 -1
-1 -1 -1 -1 -1 -1 -1 -1 -1 -1 -1 115 260 394 500 601 687 771 841 906 958 998 1023 1026 1004 958 888 794 679 543 421 314 328 336 328 278 216 151 135 151 148 214 281 376 453 537 620 706 786 863 938 1014 1085 1148 1200 1234 1258 1270 1279 1276 1259 1224 1174 1124 1086 1065 1064 1064 1072 1084 1100 1110 1113 1106 1083 1076 1052 1085 1135 1195 1253 1304 1346 1373 1393 1412 1432 1457 1486 1525 1569 1607 1646 1674 1695 1716 1734 1765 1806 1855 1898 1933 1953 1968 1978 1999 2026 2051 2078 2104 2130 2153 2165 2170 2160 2147 2126 2105 2087 2069 2052 2035 2010 1975 1939 1903 1858 1799 1711 1588 1425 1229 1060 926 962 1030 1124 1197 1243 1259 1250 1216 1160 1081 996 901 824 776 757 739 711 662 621 590 604 617 647 699 753 798 822 824 800 749 670 551 398 217 29 -1 -1 -1 -1 -1 -1 -1 -1 -1 -1 -1
-1 -1 -1 -1 -1 -1 -1 -1 -1 -1 -1 127 275 402 518 611 700 771 836 890 938 975 1001 1013 1006 976 926 853 756 635 495 371 270 265 254 233 186 196 209 219 225 215 273 324 389 460 536 614 685 757 833 914 990 1058 1113 1148 1166 1184 1203 1223 1225 1202 1163 1118 1085 1077 1076 1082 1085 1102 1126 1153 1170 1171 1164 1145 1139 1138 1169 1219 1276 1327 1370 1403 1427 1447 1466 1490 1519 1555 1598 1643 1682 1720 1749 1773 1801 1829 1869 1915 1963 2003 2036 2055 2071 2086 2109 2137 2159 2180 2201 2219 2232 2235 2231 2217 2201 2181 2161 2140 2119 2094 2067 2031 1986 1937 1876 1793 1682 1529 1341 1135 965 980 1058 1156 1229 1287 1314 1310 1279 1228 1156 1076 986 926 876 839 809 776 727 676 627 632 642 657 682 727 788 837 861 855 819 753 656 521 352 158 -1 -1 -1 -1 -1 -1 -1 -1 -1 -1 -1 -1
-1 -1 -1 -1 -1 -1 -1 -1 -1 -1 11 158 295 419 524 618 691 755 804 850 894 935 967 990 996 983 950 895 817 711 583 443 331 250 228 219 248 275 311 330 324 307 278 299 335 384 450 505 563 624 696 777 859 930 985 1012 1025 1040 1084 1136 1171 1179 1155 1120 1105 1103 1109 1113 1123 1133 1159 1192 1218 1233 1233 1231 1223 1226 1236 1265 1309 1353 1389 1416 1437 1452 1468 1491 1522 1562 1606 1649 1693 1731 1768 1799 1833 1870 1910 1957 2005 2052 2090 2118 2138 2156 2177 2202 2223 2239 2256 2271 2281 2285 2281 2273 2259 2240 2215 2192 2165 2136 2103 2062 2008 1944 1861 1754 1615 1445 1244 1074 984 1078 1186 1269 1329 1358 1365 1342 1298 1235 1160 1076 1011 953 907 863 820 770 715 659 666 680 695 712 734 777 826 870 886 868 817 731 617 468 286 81 -1 -1 -1 -1 -1 -1 -1 -1 -1 -1 -1 -1
-1 -1 -1 -1 -1 -1 -1 -1 -1 -1 57 198 324 436 533 610 670 713 748 784 833 884 929 961 976 974 953 916 856 774 662 538 434 365 326 328 347 387 421 445 445 423 404 394 410 424 430 457 488 526 581 645 716 783 824 842 833 866 932 1024 1109 1154 1161 1148 1141 1146 1155 1166 1173 1187 1206 1234 1264 1283 1292 1295 1294 1294 1302 1318 1342 1370 1394 1411 1418 1426 1436 1461 1497 1540 1585 1625 1664 1702 1741 1784 1831 1881 1931 1979 2030 2078 2122 2156 2180 2201 2223 2244 2264 2278 2291 2303 2312 2315 2314 2307 2295 2275 2250 2221 2188 2153 2112 2062 1997 1915 1813 1682 1521 1337 1177 1055 1127 1213 1306 1366 1399 1409 1393 1358 1305 1235 1154 1076 1003 940 881 825 777 733 685 690 711 734 754 769 795 830 867 890 888 854 782 681 547 387 201 -1 -1 -1 -1 -1 -1 -1 -1 -1 -1 -1 -1 -1
-1 -1 -1 -1 -1 -1 -1 -1 -1 -1 97 231 347 448 528 586 620 642 664 711 772 839 893 929 947 949 938 913 875 815 732 639 559 506 477 470 483 504 536 559 567 560 554 551 551 543 530 515 511 520 530 559 600 639 665 661 680 702 799 936 1051 1136 1175 1188 1189 1198 1210 1223 1236 1247 1263 1283 1304 1321 1331 1334 1335 1336 1340 1350 1361 1372 1379 1379 1374 1369 1381 1408 1450 1495 1533 1565 1588 1621 1666 1726 1796 1867 1931 1987 2039 2090 2135 2171 2198 2219 2239 2260 2278 2292 2304 2313 2319 2323 2324 2320 2309 2289 2263 2228 2185 2136 2084 2022 1944 1848 1730 1587 1411 1255 1131 1199 1266 1351 1406 1437 1442 1429 1397 1352 1293 1216 1127 1035 951 872 807 760 715 704 729 748 767 791 808 830 854 877 892 887 857 797 710 592 450 281 88 -1 -1 -1 -1 -1 -1 -1 -1 -1 -1 -1 -1 -1
-1 -1 -1 -1 -1 -1 -1 -1 -1 -1 115 245 352 438 498 527 536 534 572 635 720 801 858 892 906 907 900 888 868 837 788 727 670 632 610 602 606 623 642 664 677 686 687 696 699 689 669 646 620 597 579 556 554 565 575 590 605 653 750 881 1022 1120 1190 1224 1240 1252 1269 1284 1297 1306 1314 1323 1333 1340 1341 1340 1339 1339 1343 1348 1352 1349 1338 1323 1305 1299 1308 1343 1390 1430 1456 1463 1479 1500 1562 1649 1748 1839 1916 1983 2039 2087 2129 2162 2185 2205 2225 2245 2264 2279 2289 2296 2302 2307 2312 2311 2303 2286 2257 2212 2152 2079 2006 1927 1841 1739 1617 1463 1322 1199 1267 1333 1410 1452 1472 1469 1449 1415 1373 1322 1258 1175 1070 958 863 789 734 719 740 767 796 823 839 850 869 888 904 907 888 846 779 694 586 461 320 147 -1 -1 -1 -1 -1 -1 -1 -1 -1 -1 -1 -1 -1 -1
-1 -1 -1 -1 -1 -1 -1 -1 -1 -1 102 227 328 395 424 426 404 429 472 578 685 765 819 845 851 847 843 841 843 839 821 791 756 727 710 702 703 713 730 747 765 781 797 811 821 820 807 785 765 729 691 652 623 614 633 653 689 739 807 908 1014 1125 1201 1253 1285 1304 1324 1339 1349 1354 1352 1346 1337 1327 1317 1308 1304 1305 1307 1312 1310 1298 1276 1249 1223 1219 1235 1281 1324 1352 1347 1341 1327 1378 1467 1586 1698 1802 1889 1961 2021 2066 2099 2123 2143 2159 2177 2201 2224 2240 2249 2256 2263 2268 2276 2281 2279 2267 2238 2182 2097 1990 1880 1776 1680 1589 1480 1364 1257 1329 1395 1472 1505 1511 1492 1460 1419 1378 1331 1278 1209 1114 997 880 783 752 766 789 820 859 887 901 913 919 930 939 938 909 847 758 655 536 406 282 148 30 -1 -1 -1 57 67 16 -1 -1 -1 -1 -1 -1 -1 -1
-1 -1 -1 -1 -1 -1 -1 -1 -1 -1 61 180 265 304 301 269 280 306 439 562 661 734 774 786 780 770 769 781 803 824 830 821 804 784 766 757 755 761 776 796 817 841 866 888 907 915 913 908 892 865 827 789 759 752 770 803 842 890 940 1000 1068 1146 1227 1280 1322 1351 1373 1386 1392 1387 1369 1342 1310 1279 1255 1240 1236 1237 1248 1254 1248 1228 1200 1166 1150 1142 1179 1223 1253 1252 1238 1191 1210 1275 1393 1525 1651 1756 1847 1920 1975 2014 2036 2051 2060 2075 2101 2135 2163 2182 2189 2194 2197 2207 2219 2231 2239 2236 2212 2148 2046 1907 1758 1615 1498 1439 1381 1306 1385 1454 1525 1558 1555 1519 1469 1415 1363 1319 1280 1232 1159 1058 941 841 822 836 866 897 932 951 972 981 983 987 984 977 947 881 771 633 491 329 185 63 2 -1 5 61 130 162 135 47 -1 -1 -1 -1 -1 -1 -1 -1
-1 -1 -1 -1 -1 -1 -1 -1 -1 -1 -1 97 157 167 125 116 124 286 437 565 656 703 722 712 691 681 686 717 762 799 817 818 809 791 773 759 752 753 767 790 820 854 888 920 947 968 978 984 979 964 942 917 899 904 924 957 999 1035 1077 1111 1155 1205 1260 1316 1358 1389 1414 1426 1425 1408 1372 1319 1259 1208 1170 1151 1147 1161 1177 1183 1176 1152 1121 1099 1082 1107 1138 1167 1171 1157 1107 1102 1107 1194 1323 1466 1593 1701 1784 1849 1895 1923 1936 1932 1940 1959 2009 2060 2096 2113 2113 2109 2107 2122 2143 2166 2184 2198 2184 2130 2025 1886 1724 1577 1461 1390 1367 1448 1515 1583 1608 1599 1556 1490 1415 1347 1294 1258 1229 1191 1128 1035 950 922 930 957 987 1014 1028 1042 1046 1053 1049 1041 1025 989 925 821 668 485 301 143 -1 -1 -1 53 135 215 253 245 182 69 -1 -1 -1 -1 -1 -1 -1 -1
-1 -1 -1 -1 -1 -1 -1 -1 -1 -1 -1 -1 14 -1 -1 -1 105 282 451 572 639 663 652 622 592 582 609 665 726 769 787 786 770 751 727 706 689 686 695 724 765 810 856 899 939 971 994 1010 1016 1013 1008 1003 1007 1018 1047 1080 1112 1151 1181 1212 1237 1274 1316 1353 1391 1423 1446 1456 1448 1419 1370 1301 1218 1151 1111 1090 1083 1098 1108 1115 1104 1080 1058 1042 1059 1082 1101 1107 1097 1054 1039 1014 1046 1125 1252 1393 1514 1611 1687 1744 1779 1792 1785 1784 1786 1858 1935 1999 2031 2033 2018 1994 1994 2009 2043 2078 2119 2151 2156 2120 2045 1934 1808 1693 1599 1550 1555 1593 1648 1663 1646 1595 1522 1436 1350 1279 1232 1206 1191 1168 1124 1076 1047 1043 1055 1078 1098 1112 1120 1116 1115 1106 1099 1079 1040 976 875 734 550 332 151 -1 17 37 108 196 293 344 352 311 221 91 -1 -1 -1 -1 -1 -1 -1 -1
-1 -1 -1 -1 -1 -1 -1 -1 -1 -1 -1 -1 -1 -1 -1 -1 126 306 460 560 606 600 568 524 492 495 557 635 696 731 739 725 705 672 641 612 589 573 584 617 663 715 770 827 879 925 960 985 999 1009 1020 1040 1063 1088 1117 1152 1186 1216 1249 1277 1304 1328 1362 1397 1425 1452 1471 1477 1462 1427 1370 1297 1224 1164 1128 1105 1088 1061 1061 1057 1048 1030 1016 1024 1044 1061 1064 1052 1022 1011 988 996 1018 1070 1180 1296 1404 1489 1558 1605 1632 1623 1610 1607 1704 1804 1894 1946 1958 1941 1896 1861 1843 1871 1916 1972 2030 2086 2116 2113 2075 2008 1930 1851 1789 1748 1740 1736 1724 1692 1633 1552 1461 1368 1285 1221 1188 1179 1176 1172 1160 1152 1147 1152 1164 1176 1188 1194 1188 1178 1162 1145 1120 1084 1022 930 796 629 419 222 59 122 174 249 311 377 424 449 428 362 257 128 -1 -1 -1 -1 -1 -1 -1 -1
-1 -1 -1 -1 -1 -1 -1 -1 -1 -1 -1 -1 -1 -1 -1 25 196 341 461 536 553 530 479 429 408 457 540 615 666 684 673 649 616 577 537 511 494 478 483 515 548 590 648 712 777 831 876 910 935 958 994 1037 1078 1113 1146 1178 1208 1240 1273 1308 1338 1368 1396 1426 1454 1475 1489 1490 1472 1434 1383 1322 1261 1216 1181 1154 1118 1080 1038 1025 1016 1006 1004 1023 1039 1042 1029 1005 986 979 1005 1032 1058 1088 1117 1208 1282 1352 1400 1444 1458 1458 1440 1544 1675 1793 1867 1891 1874 1820 1757 1694 1677 1706 1762 1833 1914 1993 2056 2093 2096 2072 2033 1983 1933 1895 1856 1813 1750 1664 1570 1474 1383 1300 1232 1189 1177 1181 1194 1204 1213 1222 1232 1238 1244 1252 1256 1251 1234 1210 1181 1148 1108 1048 965 847 695 503 328 155 218 291 380 443 493 525 541 528 481 397 285 156 12 -1 -1 -1 -1 -1 -1 -1
-1 -1 -1 -1 -1 -1 -1 -1 -1 -1 -1 -1 -1 -1 -1 128 262 379 461 497 494 455 400 364 373 459 542 602 630 623 598 561 525 489 461 457 463 481 486 478 489 511 544 605 655 710 758 803 848 893 956 1020 1070 1109 1140 1166 1192 1222 1260 1303 1343 1379 1410 1442 1469 1490 1501 1499 1480 1448 1400 1347 1296 1256 1226 1195 1156 1106 1059 1019 1007 1000 1016 1031 1043 1033 1002 977 965 994 1031 1084 1124 1144 1153 1146 1196 1217 1250 1283 1318 1324 1432 1557 1688 1786 1826 1814 1757 1681 1588 1518 1495 1521 1583 1668 1772 1883 1983 2059 2103 2115 2103 2073 2030 1976 1911 1828 1716 1588 1469 1370 1297 1243 1203 1197 1203 1220 1237 1253 1267 1284 1295 1303 1306 1307 1300 1285 1255 1212 1160 1109 1046 971 870 741 571 411 253 312 387 485 554 605 630 639 621 579 512 415 292 150 -1 -1 -1 -1 -1 -1 -1 -1
-1 -1 -1 -1 -1 -1 -1 -1 -1 -1 -1 -1 -1 -1 95 221 326 403 443 447 420 379 342 331 407 483 548 582 580 557 516 484 458 446 467 494 528 551 560 554 544 552 566 566 597 640 688 736 784 860 934 1002 1056 1090 1113 1131 1151 1181 1224 1273 1321 1364 1403 1438 1470 1494 1506 1505 1489 1458 1411 1356 1304 1267 1237 1210 1174 1131 1083 1041 1013 1019 1037 1052 1056 1039 1013 986 984 999 1060 1120 1186 1217 1223 1210 1169 1172 1186 1218 1260 1370 1492 1624 1721 1770 1764 1703 1615 1515 1419 1346 1312 1336 1400 1497 1628 1778 1915 2025 2097 2137 2144 2123 2078 2009 1916 1790 1635 1481 1349 1278 1235 1219 1227 1237 1256 1275 1292 1307 1319 1329 1338 1342 1342 1338 1325 1300 1258 1195 1113 1022 938 847 746 614 481 341 398 472 573 647 695 719 722 701 659 597 513 405 267 110 -1 -1 -1 -1 -1 -1 -1 -1
-1 -1 -1 -1 -1 -1 -1 -1 -1 -1 -1 -1 14 109 209 298 368 404 402 374 339 313 302 377 448 515 549 549 524 485 454 433 442 482 527 578 619 652 665 664 662 659 658 663 678 711 753 792 823 853 931 991 1038 1066 1079 1091 1104 1133 1172 1218 1270 1320 1367 1412 1454 1486 1505 1507 1492 1460 1410 1347 1286 1236 1210 1188 1165 1133 1095 1059 1039 1047 1064 1078 1079 1070 1053 1038 1026 1038 1070 1149 1223 1289 1313 1308 1292 1275 1295 1326 1393 1487 1605 1699 1755 1749 1678 1567 1454 1350 1263 1199 1167 1189 1252 1367 1527 1702 1867 1996 2092 2146 2164 2144 2090 2006 1883 1715 1534 1357 1273 1240 1244 1261 1282 1304 1319 1335 1346 1352 1355 1355 1354 1352 1347 1341 1328 1300 1251 1173 1064 932 805 704 607 528 430 478 544 647 721 767 785 779 752 708 646 572 478 360 212 43 -1 -1 -1 -1 -1 -1 -1 -1
-1 -1 -1 -1 -1 -1 -1 -1 -1 -1 19 82 155 230 298 349 377 374 333 284 258 266 352 425 496 538 542 514 471 434 422 448 487 546 608 660 705 737 757 766 767 769 769 780 798 826 855 880 897 913 927 983 1018 1039 1053 1056 1065 1083 1112 1149 1196 1251 1311 1374 1430 1473 1498 1504 1490 1456 1398 1330 1252 1191 1158 1144 1131 1113 1094 1071 1070 1077 1090 1100 1106 1106 1104 1100 1097 1100 1123 1175 1259 1340 1401 1427 1438 1448 1469 1511 1565 1644 1718 1771 1773 1711 1581 1426 1297 1208 1141 1099 1091 1107 1182 1317 1478 1658 1832 1980 2083 2151 2172 2148 2083 1977 1824 1643 1446 1341 1292 1294 1316 1338 1360 1373 1381 1383 1381 1375 1364 1351 1338 1327 1318 1313 1304 1282 1236 1157 1035 886 731 613 546 512 571 629 712 777 823 833 814 773 720 654 579 495 400 281 132 -1 -1 -1 -1 -1 -1 -1 -1 -1
-1 -1 -1 -1 -1 -1 -1 -1 -1 11 100 175 247 305 345 362 352 309 263 199 230 325 408 482 528 545 525 480 437 416 441 488 550 610 670 721 760 792 815 830 838 842 849 857 876 897 917 935 948 957 969 973 1001 1026 1036 1036 1039 1049 1061 1085 1128 1191 1267 1345 1412 1460 1489 1498 1486 1448 1394 1313 1236 1163 1126 1108 1098 1092 1086 1088 1095 1101 1106 1111 1118 1131 1144 1157 1172 1185 1208 1236 1301 1383 1468 1530 1569 1601 1636 1676 1728 1778 1820 1821 1770 1653 1482 1299 1171 1107 1077 1055 1055 1091 1178 1310 1476 1654 1824 1970 2086 2155 2177 2150 2072 1948 1794 1607 1497 1434 1409 1405 1414 1430 1433 1429 1415 1397 1381 1363 1341 1318 1294 1273 1262 1254 1254 1243 1211 1146 1043 906 772 680 641 671 726 794 843 875 875 844 783 704 622 541 456 370 279 172 32 -1 -1 -1 -1 -1 -1 -1 -1 -1
-1 -1 -1 -1 -1 -1 -1 -1 -1 18 135 222 287 332 347 333 283 239 179 250 311 391 468 518 542 534 500 452 422 434 477 537 601 656 704 747 781 809 832 850 861 869 876 885 895 907 917 928 943 962 977 994 1012 1025 1034 1034 1033 1033 1040 1061 1106 1171 1254 1332 1399 1449 1479 1491 1480 1449 1391 1325 1246 1185 1143 1119 1097 1079 1085 1098 1111 1113 1109 1106 1112 1135 1166 1199 1236 1273 1300 1332 1367 1438 1521 1607 1673 1724 1769 1811 1853 1888 1890 1848 1746 1585 1390 1209 1113 1076 1061 1063 1070 1112 1201 1340 1503 1677 1839 1980 2092 2162 2184 2155 2081 1960 1811 1699 1619 1575 1551 1536 1525 1511 1490 1450 1400 1357 1324 1306 1285 1263 1231 1201 1177 1174 1177 1184 1174 1140 1070 974 886 831 819 844 885 921 938 925 881 803 697 579 470 378 289 206 128 37 -1 -1 -1 -1 -1 -1 -1 -1 -1 -1
-1 -1 -1 -1 -1 -1 -1 -1 -1 -1 125 225 288 315 310 260 209 149 243 315 393 452 500 527 528 506 465 432 427 461 515 573 628 672 709 739 767 790 810 828 840 847 854 856 858 855 851 854 872 905 946 983 1021 1042 1049 1050 1049 1046 1051 1072 1118 1184 1257 1331 1394 1440 1471 1483 1476 1449 1407 1352 1290 1238 1195 1151 1111 1083 1084 1106 1118 1116 1103 1092 1098 1122 1166 1218 1277 1334 1388 1424 1468 1514 1585 1666 1751 1819 1872 1918 1952 1966 1943 1859 1718 1530 1331 1205 1145 1115 1111 1112 1130 1170 1257 1388 1551 1716 1869 2001 2102 2171 2195 2171 2103 2007 1902 1818 1760 1718 1679 1648 1616 1573 1512 1432 1330 1249 1205 1189 1199 1193 1167 1123 1086 1067 1076 1101 1122 1120 1093 1046 1006 980 977 989 1003 1004 982 926 839 718 568 414 290 184 97 27 -1 -1 -1 -1 -1 -1 -1 -1 -1 -1 -1 -1
-1 -1 -1 -1 -1 -1 -1 -1 -1 -1 76 191 250 266 231 189 117 215 291 376 436 479 502 508 493 462 431 417 446 489 539 585 622 653 681 703 726 743 758 771 780 786 787 786 772 752 730 720 744 797 867 949 1013 1056 1076 1082 1082 1085 1093 1111 1152 1213 1278 1342 1396 1438 1464 1474 1470 1451 1423 1383 1338 1296 1247 1187 1127 1095 1097 1112 1121 1111 1092 1078 1082 1103 1151 1222 1299 1375 1447 1510 1561 1609 1661 1732 1813 1890 1952 1998 2026 2027 1982 1879 1716 1528 1387 1302 1249 1220 1201 1208 1225 1270 1346 1462 1610 1764 1906 2024 2120 2183 2208 2191 2141 2072 1995 1931 1880 1832 1781 1731 1676 1604 1515 1389 1256 1120 1030 1044 1078 1113 1109 1073 1016 966 975 1003 1044 1078 1092 1093 1089 1085 1082 1079 1066 1035 977 885 757 601 417 236 104 18 -1 -1 -1 -1 -1 -1 -1 -1 -1 -1 -1 -1 -1 -1
-1 -1 -1 -1 -1 -1 -1 -1 -1 -1 13 118 185 176 153 86 177 253 340 401 445 470 478 467 445 418 400 425 465 507 541 563 585 607 627 651 665 679 686 694 696 696 696 681 654 617 578 561 596 678 787 897 994 1061 1102 1121 1127 1138 1150 1170 1201 1251 1305 1356 1402 1434 1452 1458 1456 1446 1428 1403 1375 1339 1289 1223 1158 1122 1123 1132 1129 1111 1087 1074 1075 1097 1140 1214 1307 1400 1488 1569 1641 1697 1749 1802 1873 1946 2011 2059 2084 2076 2023 1920 1773 1626 1523 1460 1410 1363 1338 1333 1358 1405 1470 1566 1687 1827 1951 2060 2141 2198 2224 2216 2183 2131 2071 2018 1968 1912 1850 1784 1710 1618 1503 1381 1217 1062 947 904 967 1020 1061 1052 1009 953 886 905 946 1005 1059 1101 1124 1132 1127 1108 1072 1014 927 804 646 465 267 92 -1 -1 -1 -1 -1 -1 -1 -1 -1 -1 -1 -1 -1 -1 -1 -1
-1 -1 -1 -1 -1 -1 -1 -1 -1 -1 -1 49 80 99 44 130 200 286 349 397 426 438 434 418 395 380 407 443 481 508 515 518 522 541 569 585 600 604 606 604 601 597 584 565 528 482 441 429 486 599 725 857 966 1058 1120 1157 1179 1191 1211 1231 1256 1291 1331 1370 1402 1424 1433 1434 1428 1423 1416 1406 1390 1364 1321 1259 1206 1175 1162 1162 1150 1122 1101 1092 1085 1098 1143 1214 1312 1420 1520 1615 1698 1769 1827 1883 1935 2000 2059 2106 2128 2119 2071 1984 1872 1766 1696 1639 1587 1540 1497 1489 1510 1552 1616 1692 1785 1896 2006 2095 2167 2214 2237 2236 2213 2173 2126 2078 2024 1963 1895 1819 1735 1634 1523 1394 1258 1112 995 929 886 952 997 1027 1015 962 893 821 851 915 999 1066 1106 1121 1110 1078 1023 942 836 692 516 322 150 12 13 36 56 68 56 38 9 -1 -1 -1 -1 -1 -1 -1 -1 -1
-1 -1 -1 -1 -1 -1 -1 -1 -1 -1 -1 -1 28 -1 77 131 219 283 336 373 391 392 384 372 360 383 422 463 487 488 470 451 454 476 504 526 530 530 524 516 508 495 483 456 418 378 355 380 452 561 700 828 953 1051 1131 1185 1220 1244 1263 1285 1306 1328 1351 1375 1394 1404 1405 1398 1389 1384 1386 1387 1384 1372 1343 1301 1265 1240 1226 1210 1190 1166 1149 1130 1122 1123 1158 1233 1328 1440 1555 1655 1746 1823 1890 1950 2005 2053 2105 2143 2165 2157 2121 2060 1983 1915 1856 1807 1758 1708 1670 1651 1665 1703 1753 1818 1891 1971 2056 2132 2186 2226 2246 2247 2231 2200 2161 2114 2059 1997 1928 1852 1765 1668 1563 1451 1330 1214 1113 1023 955 889 937 970 990 966 898 819 770 829 918 994 1043 1058 1043 998 926 829 707 556 370 207 71 96 143 197 224 223 203 169 122 55 -1 -1 -1 -1 -1 -1 -1 -1
-1 -1 -1 -1 -1 -1 -1 -1 -1 -1 -1 13 -1 56 56 142 200 263 312 343 352 349 341 335 357 392 437 469 475 453 411 383 388 421 451 467 464 457 445 437 424 415 395 370 340 314 328 380 461 569 689 827 948 1057 1140 1208 1254 1285 1306 1323 1336 1348 1358 1367 1374 1377 1369 1355 1340 1334 1337 1346 1355 1360 1355 1340 1320 1310 1294 1277 1255 1233 1214 1201 1184 1183 1203 1268 1364 1478 1593 1699 1787 1871 1942 2004 2057 2105 2144 2177 2195 2192 2169 2129 2082 2033 1987 1942 1898 1856 1820 1803 1805 1832 1869 1919 1976 2038 2097 2153 2198 2226 2242 2244 2234 2212 2178 2135 2083 2023 1955 1881 1796 1705 1610 1506 1404 1305 1214 1125 1033 956 874 907 933 939 896 818 741 759 823 892 943 959 937 880 786 672 544 394 253 128 178 235 314 363 385 369 333 276 200 109 -1 -1 -1 -1 -1 -1 -1 -1
-1 -1 -1 -1 -1 -1 -1 -1 -1 -1 -1 54 92 96 130 133 188 241 291 320 328 318 311 323 354 397 435 455 447 408 353 322 338 379 406 411 404 389 376 367 361 351 337 314 292 291 311 374 470 579 706 828 956 1063 1155 1225 1279 1313 1335 1343 1346 1343 1341 1344 1346 1347 1336 1310 1286 1274 1275 1287 1309 1333 1355 1363 1370 1368 1366 1350 1333 1312 1295 1286 1274 1265 1287 1333 1418 1521 1637 1743 1832 1910 1984 2046 2098 2142 2177 2201 2215 2214 2201 2177 2146 2111 2074 2036 1997 1960 1931 1913 1910 1921 1946 1980 2026 2072 2118 2158 2190 2212 2224 2226 2220 2206 2179 2142 2094 2039 1975 1900 1823 1737 1644 1546 1448 1347 1253 1169 1090 1002 921 842 872 881 865 806 742 696 732 785 831 843 815 741 622 488 359 265 176 255 326 416 476 512 510 481 418 332 230 113 -1 -1 -1 -1 -1 -1 -1 -1
-1 -1 -1 -1 -1 -1 -1 -1 -1 -1 -1 86 142 172 177 191 209 249 289 317 322 308 302 313 344 383 414 426 407 358 302 276 306 339 357 361 351 332 318 315 321 314 306 290 286 279 296 351 447 571 704 837 958 1074 1167 1242 1295 1331 1347 1347 1332 1316 1305 1305 1312 1312 1302 1275 1238 1226 1219 1237 1269 1310 1349 1382 1402 1418 1424 1422 1410 1396 1382 1372 1371 1372 1384 1427 1489 1579 1675 1780 1871 1948 2015 2076 2126 2165 2193 2211 2219 2219 2211 2195 2171 2144 2114 2082 2048 2015 1988 1965 1952 1949 1963 1991 2026 2066 2103 2136 2162 2177 2186 2191 2189 2182 2164 2134 2092 2042 1981 1915 1839 1756 1665 1564 1452 1343 1235 1143 1079 1018 946 875 802 817 807 776 715 670 656 700 734 738 696 611 497 347 262 228 322 408 507 574 611 615 591 530 441 327 198 60 -1 -1 -1 -1 -1 -1 -1 -1
-1 -1 -1 -1 -1 -1 -1 -1 -1 -1 -1 84 165 211 233 244 261 286 316 334 334 316 300 302 322 356 385 393 367 315 256 250 269 293 310 312 301 290 278 294 305 306 298 302 300 294 295 327 414 539 683 827 960 1071 1174 1251 1307 1339 1349 1336 1306 1271 1258 1260 1268 1275 1265 1241 1211 1197 1224 1242 1274 1311 1355 1396 1429 1452 1469 1477 1477 1472 1463 1460 1459 1472 1489 1525 1577 1641 1725 1809 1900 1976 2040 2093 2138 2169 2190 2200 2204 2202 2195 2181 2161 2136 2110 2080 2048 2015 1982 1950 1924 1907 1912 1938 1976 2017 2054 2086 2109 2124 2132 2136 2142 2139 2132 2109 2074 2027 1974 1913 1843 1761 1669 1562 1448 1328 1217 1100 1018 982 942 884 815 747 748 720 685 641 641 655 679 671 626 540 447 414 388 429 505 594 655 691 693 662 602 514 397 256 105 -1 -1 -1 -1 -1 -1 -1 -1 -1
-1 -1 -1 -1 -1 -1 -1 -1 -1 -1 -1 54 160 232 271 294 313 334 355 365 357 332 303 287 297 326 356 365 342 287 236 216 231 251 263 261 261 253 277 295 311 316 322 329 336 336 328 344 397 513 662 812 949 1072 1168 1252 1310 1342 1347 1324 1280 1231 1206 1210 1223 1228 1225 1213 1196 1222 1248 1279 1304 1334 1371 1408 1443 1471 1495 1514 1526 1531 1531 1531 1539 1551 1579 1616 1660 1714 1775 1849 1922 1992 2052 2099 2132 2155 2167 2170 2167 2165 2156 2141 2119 2093 2065 2034 2000 1961 1916 1871 1827 1796 1795 1826 1876 1929 1977 2015 2037 2051 2059 2067 2074 2089 2084 2067 2036 1995 1948 1892 1828 1751 1659 1562 1455 1346 1223 1114 1001 925 910 865 807 744 685 682 659 665 665 673 675 669 630 592 572 567 600 645 698 743 763 750 704 627 531 419 287 133 -1 -1 -1 -1 -1 -1 -1 -1 -1 -1
-1 -1 -1 -1 -1 -1 -1 -1 -1 -1 -1 2 129 228 296 337 363 383 399 401 386 352 312 284 276 302 334 349 329 285 235 205 209 218 222 228 224 250 276 303 320 337 349 365 382 395 406 412 438 517 654 804 944 1067 1172 1250 1310 1343 1343 1316 1266 1213 1174 1171 1176 1186 1190 1185 1216 1242 1278 1305 1330 1355 1381 1412 1442 1473 1504 1529 1553 1566 1573 1580 1589 1607 1639 1680 1726 1774 1828 1884 1945 2001 2049 2085 2109 2120 2122 2117 2113 2106 2096 2078 2054 2023 1991 1955 1914 1863 1803 1736 1670 1630 1624 1672 1744 1821 1885 1928 1949 1962 1967 1984 2006 2019 2023 2007 1981 1944 1904 1855 1799 1730 1656 1570 1479 1376 1277 1169 1063 970 864 827 771 714 680 668 702 724 738 735 735 727 720 716 725 748 784 818 840 841 809 737 629 500 365 239 116 -1 -1 -1 -1 -1 -1 -1 -1 -1 -1 -1
-1 -1 -1 -1 -1 -1 -1 -1 -1 -1 -1 -1 71 197 297 363 405 429 440 436 411 368 324 282 269 289 324 343 331 292 248 214 191 192 200 202 222 245 273 297 320 343 371 397 429 463 492 514 535 576 676 814 954 1076 1175 1258 1313 1342 1342 1311 1263 1207 1170 1145 1147 1157 1165 1196 1223 1258 1283 1308 1331 1353 1376 1397 1426 1458 1495 1531 1557 1573 1585 1594 1607 1631 1671 1716 1763 1812 1860 1908 1955 1998 2031 2054 2066 2066 2058 2049 2038 2029 2013 1994 1969 1934 1897 1857 1803 1735 1651 1559 1475 1420 1443 1514 1616 1717 1794 1834 1852 1854 1870 1890 1917 1939 1943 1933 1910 1885 1848 1806 1758 1705 1643 1575 1497 1417 1332 1242 1148 1039 926 803 740 706 702 740 779 816 835 839 832 836 841 853 876 902 928 940 926 878 784 646 471 282 119 -1 -1 -1 -1 -1 -1 -1 -1 -1 -1 -1 -1 -1
-1 -1 -1 -1 -1 -1 -1 -1 -1 -1 -1 -1 -1 142 271 368 430 467 479 470 435 388 332 290 271 289 325 350 342 307 260 215 191 183 189 209 225 244 260 278 302 333 367 412 460 516 569 613 645 679 741 853 978 1094 1192 1266 1320 1346 1338 1307 1255 1211 1166 1147 1139 1148 1174 1199 1229 1250 1268 1286 1306 1326 1341 1365 1393 1437 1483 1518 1542 1554 1559 1570 1586 1626 1674 1727 1778 1827 1869 1910 1944 1973 1991 2003 2004 1995 1979 1965 1954 1931 1910 1892 1865 1833 1795 1751 1689 1592 1477 1361 1266 1236 1293 1402 1529 1637 1707 1739 1736 1746 1759 1782 1815 1842 1854 1846 1833 1808 1781 1746 1707 1662 1613 1559 1501 1437 1370 1298 1217 1122 1004 887 806 782 799 839 886 920 943 952 954 959 971 987 1004 1025 1031 1012 957 854 699 499 271 51 -1 -1 -1 -1 -1 -1 -1 -1 -1 -1 -1 -1 -1 -1
-1 -1 -1 -1 -1 -1 -1 -1 -1 -1 -1 -1 -1 60 221 348 440 491 512 499 463 406 348 299 279 302 340 366 363 324 269 219 199 200 211 220 236 242 245 255 273 297 337 388 462 542 622 688 743 789 836 913 1019 1123 1214 1285 1331 1351 1339 1300 1255 1205 1173 1154 1164 1175 1182 1205 1221 1235 1242 1256 1269 1280 1302 1325 1373 1423 1468 1498 1511 1509 1508 1509 1546 1601 1662 1722 1775 1819 1855 1884 1907 1920 1929 1930 1926 1910 1888 1874 1851 1822 1794 1775 1748 1723 1694 1649 1573 1459 1315 1185 1107 1117 1209 1345 1472 1572 1627 1629 1627 1616 1637 1667 1707 1737 1754 1756 1741 1722 1699 1676 1645 1607 1569 1525 1478 1430 1380 1325 1262 1185 1094 999 936 907 920 949 986 1020 1042 1054 1065 1076 1089 1100 1112 1113 1094 1039 935 784 580 345 105 -1 -1 -1 -1 -1 -1 -1 -1 -1 -1 -1 -1 -1 -1 -1
