-1 -1 -1 -1 -1 -1 -1 -1 -1 -1 -1 -1 -1 -1 -1 -1 -1 -1 -1 -1 -1 -1 -1 -1 -1 -1 -1 -1 -1 -1 -1 -1 -1 -1 -1 -1 -1 -1 -1 -1 -1 -1 -1 -1 -1 -1 -1 -1 -1 -1 -1 -1 -1 -1 -1 -1 -1 -1 -1 -1 -1 -1 -1 -1 -1 -1 -1 -1 -1 -1 -1 -1 -1 -1 -1 -1 -1 -1 -1 -1 -1 -1 -1 -1 -1 -1 -1 -1 -1 -1 -1 -1 -1 -1 -1 -1 -1 -1 -1 -1 -1 -1 -1 -1 -1 -1 -1 -1 -1 -1 -1 -1 -1 -1 -1 -1 -1 -1 -1 -1 -1 -1 -1 -1 -1 -1 -1 -1 -1 -1 -1 -1 -1 -1 -1 -1 -1 -1 -1 -1 -1 -1 -1 -1 -1 -1 -1 -1 -1 -1 -1 -1 -1 -1 -1 -1 -1 -1 -1 -1 -1 -1 -1 -1 -1 -1 -1 -1 -1 -1 -1 -1 -1 -1 -1 -1 -1 -1 -1 -1
-1 -1 -1 -1 -1 -1 -1 -1 -1 -1 -1 -1 -1 -1 -1 -1 -1 -1 -1 -1 -1 -1 -1 -1 -1 -1 -1 -1 -1 -1 -1 -1 -1 -1 -1 -1 -1 -1 -1 -1 -1 -1 -1 -1 -1 -1 -1 -1 -1 -1 -1 -1 -1 -1 -1 -1 -1 -1 -1 -1 -1 -1 -1 -1 -1 -1 -1 -1 -1 -1 -1 -1 -1 -1 -1 -1 -1 -1 -1 -1 -1 -1 -1 -1 -1 -1 -1 -1 -1 -1 -1 -1 -1 -1 -1 -1 -1 -1 -1 -1 -1 -1 -1 -1 -1 -1 -1 -1 -1 -1 -1 -1 -1 -1 -1 -1 -1 -1 -1 -1 -1 -1 -1 -1 -1 -1 -1 -1 -1 -1 -1 -1 -1 -1 -1 -1 -1 -1 -1 -1 -1 -1 -1 -1 -1 -1 -1 -1 -1 -1 -1 -1 -1 -1 -1 -1 -1 -1 -1 -1 -1 -1 -1 -1 -1 -1 -1 -1 -1 -1 -1 -1 -1 -1 -1 -1 -1 -1 -1 -1
-1 -1 -1 -1 -1 -1 -1 -1 -1 -1 -1 -1 -1 -1 -1 -1 -1 -1 -1 -1 -1 -1 -1 -1 -1 -1 -1 -1 -1 -1 -1 -1 -1 -1 -1 -1 -1 -1 -1 -1 -1 -1 -1 -1 -1 -1 -1 -1 -1 -1 -1 -1 -1 -1 -1 -1 -1 -1 -1 -1 -1 -1 -1 -1 -1 -1 -1 -1 -1 -1 -1 -1 -1 -1 -1 -1 -1 -1 -1 -1 -1 -1 -1 -1 -1 -1 -1 -1 -1 -1 -1 -1 -1 -1 -1 -1 -1 -1 -1 -1 -1 -1 -1 -1 -1 -1 -1 -1 -1 -1 -1 -1 -1 -1 -1 -1 -1 -1 -1 -1 -1 -1 -1 -1 -1 -1 -1 -1 -1 -1 -1 -1 -1 -1 -1 -1 -1 -1 -1 -1 -1 -1 -1 -1 -1 -1 -1 -1 -1 -1 -1 -1 -1 -1 -1 -1 -1 -1 -1 -1 -1 -1 -1 -1 -1 -1 -1 -1 -1 -1 -1 -1 -1 -1 -1 -1 -1 -1 -1 -1
-1 -1 -1 -1 -1 -1 -1 -1 -1 -1 -1 -1 -1 -1 -1 -1 -1 -1 -1 -1 -1 -1 -1 -1 -1 -1 -1 -1 -1 -1 -1 -1 -1 -1 -1 -1 -1 -1 -1 -1 -1 -1 -1 -1 -1 -1 -1 -1 -1 -1 -1 -1 -1 -1 -1 -1 -1 -1 -1 -1 -1 -1 -1 -1 -1 -1 -1 -1 -1 -1 -1 -1 -1 -1 -1 0 10 -1 -1 -1 -1 -1 -1 -1 -1 -1 -1 -1 -1 -1 -1 -1 -1 -1 -1 -1 -1 -1 -1 -1 -1 -1 -1 -1 -1 -1 -1 -1 -1 -1 -1 -1 -1 -1 -1 -1 -1 -1 -1 -1 -1 -1 -1 -1 -1 -1 -1 -1 -1 -1 -1 -1 -1 -1 -1 -1 -1 -1 -1 -1 -1 -1 -1 -1 -1 -1 -1 -1 -1 -1 -1 -1 -1 -1 -1 -1 -1 -1 -1 -1 -1 -1 -1 -1 -1 -1 -1 -1 -1 -1 -1 -1 -1 -1 -1 -1 -1 -1 -1 -1
-1 -1 -1 -1 -1 -1 -1 -1 -1 -1 -1 -1 -1 -1 -1 -1 -1 -1 -1 -1 -1 -1 -1 -1 -1 -1 -1 -1 -1 -1 -1 -1 -1 -1 -1 -1 -1 -1 -1 -1 -1 -1 -1 -1 -1 -1 -1 -1 -1 -1 -1 -1 -1 -1 -1 -1 18 70 98 98 73 36 -1 -1 -1 -1 -1 -1 -1 56 104 140 166 190 216 232 232 224 178 97 19 -1 -1 -1 -1 8 66 74 22 -1 -1 -1 -1 -1 -1 -1 -1 -1 -1 -1 -1 -1 -1 -1 -1 -1 -1 -1 -1 -1 -1 -1 -1 -1 -1 -1 -1 -1 -1 -1 -1 -1 -1 -1 -1 -1 -1 -1 -1 -1 -1 -1 -1 -1 -1 -1 -1 -1 -1 -1 -1 -1 -1 -1 -1 -1 -1 -1 -1 -1 -1 -1 -1 -1 -1 -1 -1 -1 -1 -1 -1 -1 -1 -1 -1 -1 -1 -1 -1 -1 -1 -1 -1 -1 -1 -1 -1 -1 -1 -1
-1 -1 -1 -1 -1 -1 -1 -1 -1 -1 -1 -1 -1 -1 -1 -1 -1 -1 -1 -1 -1 -1 -1 -1 -1 -1 -1 -1 -1 -1 -1 -1 -1 -1 -1 -1 -1 -1 -1 -1 -1 -1 -1 -1 -1 -1 -1 -1 -1 -1 2 64 85 77 97 146 213 277 307 318 300 261 217 154 67 -1 -1 -1 31 152 243 311 359 402 430 449 457 451 415 346 260 181 121 93 124 182 238 247 189 61 -1 -1 -1 -1 -1 57 65 42 -1 -1 -1 -1 -1 -1 -1 -1 -1 -1 -1 -1 -1 -1 -1 -1 -1 -1 -1 -1 -1 -1 -1 -1 -1 -1 -1 -1 -1 -1 -1 -1 -1 -1 -1 -1 -1 -1 -1 -1 -1 -1 -1 -1 -1 -1 -1 -1 -1 -1 -1 -1 -1 -1 -1 -1 -1 -1 -1 -1 -1 -1 -1 -1 -1 -1 -1 -1 -1 -1 -1 -1 -1 -1 -1 -1 -1 -1 -1 -1 -1 -1
-1 -1 -1 -1 -1 -1 -1 -1 -1 -1 -1 -1 -1 -1 -1 -1 -1 -1 -1 -1 -1 -1 -1 -1 -1 -1 -1 -1 -1 -1 -1 -1 -1 -1 -1 -1 -1 -1 -1 -1 -1 -1 -1 -1 -1 -1 -1 -1 -1 -1 137 234 285 302 310 345 403 461 506 519 516 490 450 403 322 213 108 1 80 176 315 422 512 574 620 646 657 658 632 574 501 412 332 288 298 352 393 399 335 189 -1 -1 -1 -1 110 176 202 179 132 74 24 4 11 35 53 50 22 -1 -1 -1 -1 -1 -1 4 11 -1 -1 -1 -1 -1 -1 -1 -1 29 70 89 77 43 -1 -1 -1 -1 -1 -1 -1 9 0 -1 -1 -1 -1 -1 -1 -1 -1 -1 -1 -1 -1 -1 -1 -1 -1 -1 -1 -1 -1 -1 -1 -1 -1 -1 -1 -1 -1 -1 -1 -1 -1 -1 -1 -1 -1 -1 -1 -1 -1 -1 -1 -1
-1 -1 -1 -1 -1 -1 -1 -1 -1 -1 -1 -1 -1 -1 -1 -1 -1 -1 -1 -1 -1 -1 -1 -1 -1 -1 -1 -1 -1 -1 -1 -1 -1 -1 -1 -1 -1 -1 -1 -1 -1 -1 -1 58 112 109 49 -1 -1 69 242 377 458 502 514 539 579 632 674 705 710 702 675 634 571 477 341 209 84 175 301 468 605 709 775 812 831 830 815 778 708 620 519 461 467 505 539 530 460 309 103 -1 -1 45 183 275 305 290 239 172 115 83 85 112 144 161 158 132 101 85 74 89 114 139 154 146 117 61 -1 -1 -1 -1 -1 79 154 193 201 176 121 38 -1 -1 -1 12 69 92 82 39 -1 -1 -1 -1 -1 -1 -1 -1 -1 -1 -1 -1 -1 -1 -1 -1 -1 -1 -1 -1 -1 -1 -1 -1 -1 -1 -1 -1 -1 -1 -1 -1 -1 -1 -1 -1 -1 -1 -1 -1 -1 -1
-1 -1 -1 -1 -1 -1 -1 -1 -1 -1 -1 -1 -1 -1 -1 -1 -1 -1 -1 -1 3 12 14 0 -1 -1 -1 -1 -1 -1 -1 -1 -1 -1 -1 -1 -1 -1 -1 -1 -1 -1 1 124 215 258 242 182 131 177 320 479 597 663 702 716 741 777 825 865 885 886 869 840 794 710 579 397 227 115 254 444 655 807 898 947 971 977 963 932 872 775 669 614 614 644 662 645 566 420 218 30 -1 75 235 344 383 363 303 226 159 121 119 149 195 236 257 259 242 223 216 214 238 267 283 288 262 210 122 -1 -1 -1 -1 99 213 280 299 287 240 161 68 11 24 84 135 152 131 77 -1 -1 -1 -1 -1 -1 -1 -1 -1 -1 -1 -1 -1 -1 -1 -1 -1 1 7 20 31 38 38 26 4 -1 -1 -1 -1 -1 -1 -1 -1 -1 -1 -1 -1 -1 -1 -1 -1 -1
-1 -1 -1 -1 -1 -1 -1 -1 -1 -1 -1 -1 -1 -1 -1 -1 1 31 46 62 77 89 92 80 56 19 -1 -1 -1 -1 -1 -1 -1 -1 -1 24 43 43 34 12 -1 2 75 182 292 368 401 381 340 322 398 549 686 787 846 873 888 914 958 1002 1031 1041 1035 1015 977 903 768 568 343 179 167 416 683 879 997 1058 1084 1092 1081 1046 984 890 790 740 741 760 763 730 644 500 308 98 -1 103 285 395 431 400 326 237 160 112 107 146 208 274 324 349 359 349 340 344 351 377 400 404 386 336 239 96 -1 -1 -1 125 264 348 383 375 333 258 168 112 114 149 182 184 147 77 -1 -1 -1 -1 -1 -1 -1 -1 -1 -1 -1 -1 -1 -1 31 52 66 80 89 97 102 101 89 62 21 -1 -1 -1 -1 -1 -1 -1 -1 -1 -1 -1 -1 -1 -1 -1 -1 -1
-1 -1 -1 -1 -1 -1 -1 -1 -1 -1 -1 -1 -1 -1 -1 -1 7 56 92 114 136 150 152 141 112 68 2 -1 -1 -1 -1 -1 -1 14 42 78 107 127 133 132 131 133 168 248 350 447 516 545 529 511 525 609 746 864 949 998 1017 1040 1076 1119 1155 1171 1171 1157 1121 1049 912 700 432 227 169 423 716 945 1081 1149 1179 1182 1168 1131 1064 974 890 848 845 848 830 777 676 527 326 150 57 196 347 445 460 414 327 227 136 77 74 113 188 277 356 411 437 450 451 450 460 477 495 503 485 434 332 179 -1 -1 -1 161 313 406 446 446 406 335 256 208 199 208 211 185 126 38 -1 -1 -1 -1 -1 -1 -1 -1 -1 -1 -1 -1 -1 37 88 116 133 142 151 155 152 140 113 70 8 -1 -1 -1 -1 -1 -1 -1 -1 -1 -1 -1 -1 -1 -1 -1 -1 -1
-1 -1 -1 -1 -1 -1 -1 -1 -1 -1 -1 -1 -1 -1 -1 -1 -1 44 100 143 174 194 198 183 150 97 23 -1 -1 -1 -1 32 50 70 95 122 155 180 200 215 226 241 266 323 409 506 595 656 685 683 686 717 800 919 1020 1089 1131 1154 1184 1221 1254 1276 1280 1267 1231 1152 1010 788 503 212 252 458 773 1006 1151 1226 1253 1255 1234 1191 1125 1044 972 936 919 901 858 777 656 483 316 158 227 319 434 489 485 424 328 218 122 67 47 77 155 251 353 436 492 521 538 545 551 561 578 579 562 509 407 251 60 -1 35 209 362 459 501 499 462 399 335 287 264 250 219 160 73 -1 -1 -1 -1 -1 -1 -1 -1 -1 -1 -1 -1 -1 1 79 132 166 183 194 195 191 178 150 107 47 -1 -1 -1 -1 -1 -1 -1 -1 -1 -1 -1 -1 -1 -1 -1 -1 -1 -1
-1 -1 -1 -1 -1 -1 -1 -1 -1 -1 -1 -1 -1 -1 -1 -1 -1 3 74 138 190 222 230 215 174 118 31 -1 -1 -1 17 64 95 119 141 161 184 209 230 254 276 300 338 392 466 554 643 727 788 823 833 857 898 976 1078 1160 1217 1255 1279 1311 1339 1358 1360 1343 1296 1207 1056 825 517 302 262 562 850 1077 1216 1288 1315 1309 1280 1232 1168 1099 1039 995 956 908 835 729 575 423 264 318 376 461 515 535 506 436 341 233 132 72 71 88 123 215 322 432 515 570 599 616 627 633 643 643 618 560 461 309 125 10 100 270 412 505 545 540 503 450 393 344 307 263 201 113 0 -1 -1 -1 -1 -1 23 19 -1 -1 -1 -1 -1 -1 51 118 171 203 221 226 221 205 177 135 75 0 -1 -1 -1 -1 -1 -1 -1 -1 -1 -1 -1 -1 -1 -1 -1 -1 -1 -1
-1 -1 -1 -1 -1 -1 -1 -1 -1 -1 -1 -1 -1 -1 -1 -1 -1 -1 23 108 182 232 251 239 198 135 62 -1 -1 -1 3 70 112 145 170 188 201 214 230 248 273 308 355 425 502 590 682 771 851 916 959 984 1021 1067 1136 1220 1288 1333 1367 1390 1412 1420 1411 1379 1313 1204 1038 802 510 298 433 691 960 1159 1281 1341 1360 1348 1313 1261 1199 1138 1078 1017 946 862 761 627 492 342 396 453 532 572 587 570 523 449 356 248 156 111 137 152 149 174 282 407 518 596 643 668 683 692 695 685 652 587 484 346 177 83 177 339 467 544 574 566 530 480 427 374 318 247 156 42 -1 -1 -1 -1 24 72 92 71 11 -1 -1 -1 -1 24 97 157 203 233 242 238 220 190 147 93 26 -1 -1 -1 -1 -1 -1 -1 4 -1 -1 -1 -1 -1 -1 -1 -1 -1 -1 -1
-1 -1 -1 -1 -1 -1 -1 -1 -1 -1 -1 14 15 -1 -1 -1 -1 -1 -1 65 154 225 260 260 227 173 105 27 -1 -1 -1 41 104 151 180 195 198 198 199 207 225 263 323 409 507 606 707 801 893 976 1044 1094 1130 1172 1216 1277 1347 1399 1432 1455 1466 1459 1426 1365 1270 1132 952 713 501 383 607 880 1093 1246 1342 1385 1391 1372 1333 1280 1218 1152 1080 997 893 766 639 530 409 455 514 597 641 652 633 590 526 443 344 254 179 203 233 245 217 192 246 387 515 611 674 708 727 735 732 709 661 582 477 339 225 165 278 414 515 574 591 576 539 490 434 372 295 198 81 -1 -1 -1 -1 48 106 138 144 118 68 17 -1 -1 13 71 134 192 231 251 248 225 188 144 89 28 -1 -1 -1 -1 -1 -1 19 48 45 9 -1 -1 -1 -1 -1 -1 -1 -1 -1 -1
-1 -1 -1 -1 -1 -1 -1 -1 -1 -1 -1 35 66 64 33 -1 -1 -1 -1 17 115 200 257 276 258 216 163 101 25 -1 -1 9 90 146 178 189 184 170 158 155 163 201 269 364 476 594 709 822 922 1016 1098 1169 1220 1259 1298 1342 1400 1451 1486 1502 1500 1469 1404 1297 1159 991 795 627 470 638 830 1060 1230 1335 1393 1412 1404 1376 1334 1281 1217 1140 1052 948 812 675 534 472 515 569 645 695 713 694 651 585 503 402 312 233 268 300 341 342 301 247 279 387 518 625 695 739 760 765 751 712 643 551 431 328 242 314 394 489 557 588 589 567 527 475 412 336 240 119 11 -1 -1 0 73 132 169 185 180 158 122 88 58 47 67 112 167 213 248 258 239 189 131 69 9 -1 -1 -1 -1 -1 -1 43 77 89 69 23 -1 -1 -1 -1 -1 -1 -1 -1 -1 -1
-1 -1 -1 -1 -1 -1 -1 -1 -1 -1 -1 32 90 113 98 46 -1 -1 -1 -1 68 166 242 284 287 262 216 155 85 1 -1 11 92 146 177 185 171 146 128 119 124 154 216 309 423 554 691 819 937 1039 1132 1212 1279 1329 1369 1408 1451 1495 1525 1534 1510 1450 1339 1186 981 793 642 534 709 874 1072 1222 1340 1402 1423 1416 1390 1353 1308 1255 1188 1107 1008 887 754 610 581 592 633 695 741 761 747 704 634 549 444 349 263 297 346 401 432 433 393 332 335 421 536 637 713 761 783 782 757 699 613 498 401 319 373 428 503 552 579 580 563 532 489 432 357 271 157 45 -1 -1 34 101 153 190 208 210 202 186 165 140 116 101 110 146 188 230 254 252 216 146 58 -1 -1 -1 -1 -1 -1 12 67 103 120 109 75 20 -1 -1 -1 -1 -1 -1 -1 -1 -1 -1
-1 -1 -1 -1 -1 -1 -1 -1 -1 -1 -1 13 90 137 141 101 28 -1 -1 -1 21 127 220 281 308 297 260 203 132 48 0 42 108 157 185 191 174 152 138 125 117 130 178 253 360 491 640 787 923 1043 1149 1240 1316 1379 1427 1468 1501 1537 1556 1547 1499 1398 1248 1035 824 612 578 753 920 1114 1250 1355 1414 1432 1420 1388 1344 1298 1250 1199 1137 1060 962 848 718 681 688 723 758 790 808 798 757 683 587 473 377 285 322 369 429 476 503 507 477 431 412 468 561 657 729 776 797 791 755 685 581 486 402 439 484 540 571 581 569 541 506 469 419 351 271 169 80 -1 21 73 135 176 205 218 219 214 209 201 188 169 148 134 142 167 204 236 251 235 182 95 -1 -1 -1 -1 -1 -1 30 86 125 144 135 103 53 -1 -1 -1 -1 -1 -1 -1 -1 -1 -1 -1
-1 -1 -1 -1 -1 -1 -1 -1 -1 -1 -1 -1 76 138 162 141 76 -1 -1 -1 -1 84 191 272 314 320 294 244 178 109 53 75 121 168 197 208 200 184 169 161 148 144 156 207 288 414 566 723 875 1020 1146 1253 1339 1412 1470 1515 1551 1573 1577 1544 1459 1320 1119 920 702 724 810 965 1143 1278 1381 1435 1448 1425 1377 1323 1268 1213 1164 1116 1071 1012 933 839 785 780 804 831 851 857 845 807 737 636 505 391 290 333 385 451 496 528 551 556 545 519 503 524 599 680 748 791 808 795 751 678 593 513 521 545 587 605 600 567 518 464 415 363 310 231 137 74 -1 63 116 174 206 222 224 216 203 198 199 201 195 181 160 152 155 176 205 233 240 211 143 43 -1 -1 -1 -1 -1 39 100 143 161 153 119 65 -1 -1 -1 -1 -1 -1 -1 -1 -1 -1 -1 -1
-1 -1 -1 -1 -1 -1 -1 -1 -1 -1 -1 -1 53 125 167 165 117 34 -1 -1 -1 40 152 248 308 330 319 281 228 172 127 95 130 168 207 229 232 225 218 209 203 192 185 182 223 331 478 642 808 968 1120 1246 1352 1436 1505 1555 1590 1605 1588 1521 1392 1202 1015 813 856 929 1055 1186 1308 1403 1459 1475 1445 1382 1301 1226 1160 1106 1062 1028 1000 969 926 890 875 878 901 915 916 898 858 790 692 560 422 284 306 355 448 506 544 566 577 586 587 582 583 595 640 709 767 804 814 798 752 691 629 615 621 640 645 631 584 511 426 354 282 218 155 111 23 11 94 150 209 236 241 230 211 189 176 172 182 196 197 185 169 152 154 171 200 223 224 184 104 3 -1 -1 -1 20 70 115 155 178 168 132 73 -1 -1 -1 -1 -1 -1 -1 -1 -1 -1 -1 -1 -1
-1 -1 -1 -1 -1 -1 -1 -1 -1 -1 -1 -1 38 111 164 181 151 78 -1 -1 -1 4 110 212 286 326 333 311 272 227 176 140 127 172 213 245 260 264 268 267 263 260 248 229 215 259 387 558 739 916 1076 1226 1349 1452 1527 1584 1619 1625 1589 1485 1309 1097 913 956 1033 1147 1248 1346 1431 1487 1504 1480 1414 1316 1204 1109 1043 998 968 951 942 938 941 945 955 967 977 979 959 916 848 752 622 491 345 320 280 381 466 544 576 586 589 594 606 620 635 658 690 738 786 816 824 806 770 726 700 695 698 692 667 613 532 414 297 209 162 81 55 43 107 146 192 243 262 255 237 215 186 167 152 154 173 193 203 197 177 155 146 163 189 212 206 160 72 -1 -1 -1 45 107 149 179 192 182 147 84 3 -1 -1 -1 -1 -1 -1 -1 -1 -1 -1 -1 -1 -1
-1 -1 -1 -1 -1 -1 -1 -1 -1 -1 -1 -1 29 103 158 190 180 123 41 -1 -1 -1 64 166 249 308 333 329 304 264 217 173 154 179 223 256 278 293 299 312 321 329 334 321 290 269 326 482 674 873 1048 1201 1342 1455 1542 1602 1637 1639 1589 1463 1258 1056 1038 1117 1226 1315 1393 1463 1513 1536 1518 1458 1362 1236 1115 1017 964 927 909 901 912 935 966 996 1020 1038 1043 1026 986 919 824 698 575 434 406 350 353 359 500 571 596 595 590 589 605 632 663 698 734 768 805 830 836 822 795 770 755 747 734 704 648 563 443 321 175 121 100 145 157 193 233 274 292 296 280 252 219 205 200 178 159 148 170 200 216 213 192 166 146 155 179 200 194 140 60 -1 -1 41 115 174 206 210 194 155 94 17 -1 -1 -1 -1 -1 -1 -1 -1 -1 -1 -1 -1 -1 -1
-1 -1 -1 -1 -1 -1 -1 -1 -1 -1 -1 -1 18 92 153 194 202 170 110 44 -1 -1 29 110 203 273 317 331 320 289 249 207 188 200 229 257 278 290 306 326 357 387 411 420 411 384 369 456 643 841 1035 1196 1331 1454 1548 1614 1650 1648 1591 1465 1297 1188 1215 1295 1381 1448 1500 1543 1566 1556 1504 1412 1288 1170 1063 1028 978 923 894 905 927 963 1006 1048 1078 1095 1091 1059 998 907 787 668 533 496 437 412 362 468 541 599 608 601 590 593 605 633 676 717 759 793 824 845 850 841 820 800 780 758 726 673 593 479 363 228 227 209 237 276 317 341 356 356 339 308 275 244 248 244 230 204 171 156 177 214 235 233 210 181 155 146 171 192 186 138 59 32 53 114 178 221 231 207 155 89 12 -1 -1 -1 -1 -1 -1 -1 -1 -1 -1 -1 -1 -1 -1 -1
-1 -1 -1 -1 -1 -1 -1 -1 -1 -1 -1 -1 -1 69 134 188 218 215 186 140 84 40 13 66 140 222 281 315 322 305 273 239 218 217 229 242 249 255 270 309 364 414 463 504 531 527 514 543 664 861 1043 1204 1339 1454 1551 1620 1658 1655 1601 1500 1390 1360 1388 1446 1505 1548 1580 1597 1595 1553 1467 1339 1219 1113 1112 1098 1046 963 931 950 987 1025 1064 1107 1136 1143 1126 1073 995 884 765 633 567 505 472 408 494 550 603 618 618 605 608 616 625 647 684 730 772 813 842 860 865 854 832 802 761 716 663 598 502 399 283 313 326 366 392 418 439 445 431 397 352 295 275 290 292 283 254 216 184 172 202 239 258 251 226 193 156 144 163 190 188 149 107 98 131 180 227 245 226 171 87 -1 -1 -1 -1 -1 -1 -1 -1 -1 -1 -1 -1 -1 -1 -1 -1 -1
-1 -1 -1 -1 -1 -1 -1 -1 -1 -1 -1 -1 -1 20 95 164 220 252 251 227 182 120 70 33 84 150 224 283 315 314 292 262 238 222 212 209 205 200 224 279 340 413 484 555 611 650 672 690 772 915 1079 1229 1355 1462 1553 1625 1663 1663 1617 1546 1497 1495 1523 1565 1599 1623 1635 1633 1603 1532 1409 1265 1140 1155 1187 1187 1125 1033 1005 1035 1077 1110 1145 1175 1191 1185 1146 1080 979 866 737 628 553 506 449 534 583 626 635 634 623 635 642 656 669 679 705 744 789 827 859 875 875 858 824 770 699 619 551 483 418 331 375 411 463 495 518 529 526 507 465 410 343 330 332 336 328 300 259 221 194 213 243 271 281 268 235 191 159 145 166 191 198 178 165 177 202 234 254 244 195 113 1 -1 -1 -1 -1 -1 -1 -1 -1 -1 -1 -1 -1 -1 -1 -1 -1 -1
-1 -1 -1 -1 -1 -1 -1 -1 -1 -1 -1 -1 -1 -1 25 119 203 263 294 291 261 211 138 77 33 80 160 243 299 317 309 284 252 216 191 173 159 167 191 232 299 387 485 570 655 725 784 834 888 997 1131 1264 1381 1479 1565 1632 1674 1680 1649 1613 1597 1599 1624 1646 1667 1676 1674 1650 1594 1489 1350 1197 1149 1216 1264 1254 1193 1113 1117 1147 1182 1211 1229 1245 1244 1217 1162 1071 965 842 708 605 525 482 566 617 657 659 651 639 660 675 695 711 724 735 743 774 809 846 872 886 881 856 803 728 630 532 462 410 380 440 481 537 577 604 614 608 583 534 474 404 386 387 387 371 335 289 250 217 237 260 290 307 305 281 233 187 156 164 184 207 219 219 226 239 259 269 258 215 140 32 -1 -1 -1 -1 -1 -1 -1 -1 -1 -1 -1 -1 -1 -1 -1 -1 -1 -1
-1 -1 -1 -1 -1 -1 -1 -1 -1 -1 -1 -1 -1 -1 -1 52 161 250 307 331 322 284 218 135 60 38 118 209 278 317 327 310 274 230 186 158 145 149 159 193 254 346 456 569 667 762 848 923 993 1072 1185 1301 1407 1502 1581 1648 1691 1706 1696 1682 1676 1683 1695 1709 1714 1713 1697 1656 1570 1451 1303 1221 1257 1294 1325 1298 1227 1227 1239 1267 1290 1307 1315 1309 1286 1239 1162 1062 941 806 705 584 542 604 650 689 684 667 649 673 700 730 750 770 784 792 800 809 838 863 886 896 886 854 796 709 620 562 512 494 512 550 608 646 675 688 685 661 611 548 473 447 445 443 421 370 307 257 227 253 282 315 336 342 329 289 230 177 172 192 217 238 251 265 277 290 293 278 233 159 56 -1 -1 -1 -1 -1 -1 -1 -1 -1 -1 -1 -1 -1 -1 -1 -1 -1 -1 -1
-1 -1 -1 -1 -1 -1 -1 -1 -1 -1 -1 -1 -1 -1 -1 -1 96 208 295 347 363 342 290 208 115 61 103 181 260 315 342 339 311 269 220 185 163 145 145 160 213 306 418 543 666 780 881 974 1058 1143 1238 1340 1438 1526 1604 1667 1713 1737 1742 1739 1738 1744 1751 1753 1750 1739 1712 1649 1562 1441 1364 1358 1374 1399 1376 1328 1318 1322 1353 1378 1389 1391 1384 1360 1316 1246 1154 1041 908 806 695 685 685 707 729 716 692 661 676 706 748 779 804 820 833 842 845 853 863 884 898 905 894 864 812 750 702 660 636 631 651 678 708 736 752 754 735 692 629 550 516 507 501 481 425 345 260 222 247 293 340 367 381 375 346 296 230 181 190 225 258 276 293 306 318 320 303 257 182 78 -1 -1 -1 -1 19 31 5 -1 -1 -1 -1 -1 -1 -1 -1 -1 -1 -1 -1 -1
-1 -1 -1 -1 -1 -1 -1 -1 -1 -1 -1 -1 -1 -1 -1 -1 8 146 257 339 381 386 350 280 201 146 116 171 244 312 355 370 358 326 285 242 209 176 148 148 188 269 387 515 653 789 911 1011 1107 1198 1289 1383 1472 1554 1628 1689 1734 1765 1779 1784 1785 1789 1790 1785 1777 1758 1720 1660 1572 1505 1488 1487 1493 1483 1450 1416 1400 1420 1445 1465 1471 1460 1436 1397 1331 1246 1137 1011 910 801 796 800 811 799 769 731 686 692 714 753 791 820 839 852 862 868 873 879 887 899 910 914 906 886 851 819 787 763 748 748 757 776 793 804 810 801 772 717 641 593 573 567 549 497 417 312 245 237 285 347 394 419 421 402 360 299 230 189 212 260 297 321 334 344 345 330 286 213 108 9 -1 -1 11 67 86 70 8 -1 -1 -1 -1 -1 -1 -1 -1 -1 -1 -1 -1 -1
-1 -1 -1 -1 -1 -1 -1 -1 -1 -1 -1 -1 -1 -1 -1 -1 -1 62 200 307 379 410 400 357 298 235 188 181 241 308 364 396 403 389 362 324 277 232 188 167 185 254 364 507 654 804 931 1046 1148 1245 1337 1425 1509 1586 1652 1712 1756 1786 1806 1816 1819 1822 1818 1810 1797 1774 1735 1682 1624 1599 1595 1595 1585 1562 1532 1504 1492 1499 1520 1535 1532 1511 1473 1417 1344 1243 1129 1024 915 896 899 911 898 860 806 741 726 736 768 798 825 841 849 854 860 865 873 881 892 903 913 917 915 904 888 869 851 835 827 827 833 842 851 854 850 836 801 746 685 648 635 621 581 507 403 333 282 303 350 406 446 460 449 415 361 292 230 200 240 296 340 362 373 372 358 319 250 146 49 -1 -1 38 106 137 132 86 4 -1 -1 -1 -1 -1 -1 -1 -1 -1 -1 -1 -1 -1
-1 -1 -1 -1 -1 -1 -1 -1 -1 -1 -1 -1 -1 -1 -1 -1 -1 -1 121 256 352 414 436 422 380 320 262 237 259 316 372 414 438 444 432 405 364 312 266 228 225 275 381 523 683 827 963 1081 1189 1289 1381 1466 1543 1613 1677 1730 1774 1804 1824 1837 1841 1841 1834 1824 1810 1787 1755 1715 1688 1678 1677 1673 1657 1633 1605 1583 1571 1573 1582 1587 1577 1546 1498 1436 1351 1260 1156 1053 1005 995 1003 995 964 911 844 799 782 795 818 836 842 837 827 821 821 828 840 854 870 887 902 909 912 908 901 891 880 871 868 870 875 880 884 884 878 859 827 779 738 713 692 666 612 525 442 378 369 386 430 470 492 489 458 405 343 274 219 231 279 337 379 399 402 388 354 293 195 97 -1 29 74 138 176 185 153 82 -1 -1 -1 -1 -1 -1 -1 -1 -1 -1 -1 -1 -1 -1
-1 -1 -1 -1 -1 -1 -1 -1 -1 -1 -1 -1 9 28 18 -1 -1 -1 54 182 305 396 448 461 439 392 339 305 304 333 379 420 453 473 478 467 441 403 358 327 316 350 438 574 724 867 997 1119 1227 1328 1418 1500 1574 1640 1695 1744 1783 1814 1835 1846 1850 1847 1839 1828 1812 1794 1772 1752 1741 1736 1734 1727 1712 1689 1668 1652 1639 1634 1636 1628 1607 1571 1519 1453 1379 1290 1202 1138 1103 1090 1082 1060 1017 959 903 865 849 854 861 860 842 810 776 751 744 755 770 792 819 848 871 886 894 896 891 885 878 874 874 878 883 890 894 894 889 874 847 815 787 765 742 708 652 581 510 472 461 477 505 529 528 502 447 377 306 254 228 271 330 379 414 426 419 390 338 252 158 54 77 117 176 214 228 205 146 52 -1 -1 -1 -1 -1 -1 -1 -1 -1 -1 -1 -1 -1 -1
-1 -1 -1 -1 -1 -1 -1 -1 -1 -1 -1 -1 2 47 65 57 21 2 2 119 241 354 433 475 479 452 412 373 353 358 378 406 437 465 483 489 483 468 447 428 430 457 527 638 772 908 1035 1150 1263 1359 1450 1529 1600 1662 1712 1754 1788 1814 1834 1844 1844 1840 1829 1816 1801 1787 1775 1768 1765 1767 1766 1760 1749 1733 1716 1704 1690 1683 1674 1659 1630 1589 1539 1482 1414 1339 1271 1224 1189 1164 1139 1105 1060 1006 957 924 906 897 890 872 836 781 715 659 641 645 667 698 744 787 820 847 863 866 862 855 849 847 848 854 864 873 882 887 887 878 862 844 824 805 780 748 702 648 599 563 551 558 571 572 551 497 425 336 270 234 272 320 379 421 441 441 420 380 313 229 126 123 154 211 252 269 251 196 110 -1 -1 -1 -1 -1 -1 -1 -1 -1 -1 -1 -1 -1 -1 -1
-1 -1 -1 -1 -1 -1 -1 -1 -1 -1 -1 -1 -1 11 58 88 95 76 70 82 188 296 395 463 498 498 473 434 398 371 360 368 392 420 444 460 473 485 500 515 530 566 625 710 822 946 1069 1181 1286 1386 1472 1550 1616 1675 1721 1755 1783 1805 1820 1828 1828 1822 1810 1790 1771 1756 1752 1753 1761 1768 1773 1774 1771 1762 1750 1739 1727 1717 1702 1679 1649 1610 1563 1511 1452 1393 1337 1289 1250 1214 1175 1133 1085 1034 987 953 930 914 898 874 834 770 690 595 528 520 536 592 648 706 757 793 815 821 815 808 798 794 796 802 819 836 853 865 871 869 864 854 842 827 807 781 748 710 674 645 629 625 622 605 558 491 393 308 248 267 316 376 423 452 455 437 404 358 297 214 188 200 240 283 307 299 248 155 43 -1 -1 -1 -1 -1 -1 -1 -1 -1 -1 -1 -1 -1 -1 -1
-1 -1 -1 -1 -1 -1 -1 -1 -1 -1 -1 -1 -1 -1 3 71 119 143 141 151 165 253 347 436 497 526 520 485 431 378 331 314 329 352 372 392 412 454 508 556 603 650 711 781 870 984 1097 1208 1309 1405 1491 1560 1624 1676 1717 1747 1767 1781 1791 1798 1799 1797 1783 1756 1721 1702 1695 1704 1720 1739 1756 1769 1775 1773 1767 1756 1747 1733 1715 1691 1663 1626 1585 1537 1487 1435 1381 1331 1282 1236 1190 1140 1086 1030 980 939 909 890 876 858 825 772 692 592 480 410 433 473 539 608 676 729 757 763 758 741 726 719 717 736 760 789 812 830 842 847 850 847 841 831 818 800 779 755 730 708 691 678 661 626 569 478 389 302 295 323 374 425 458 468 453 418 381 337 288 257 259 284 320 341 344 306 220 101 -1 -1 -1 -1 -1 -1 -1 -1 -1 -1 -1 -1 -1 -1 -1 -1
-1 -1 -1 -1 -1 -1 -1 -1 -1 -1 -1 -1 -1 -1 -1 21 106 169 206 216 233 250 324 409 488 538 551 520 457 372 308 266 271 282 299 308 339 394 474 562 638 711 778 851 925 1014 1126 1227 1329 1417 1498 1566 1618 1664 1697 1720 1734 1741 1748 1754 1763 1765 1755 1725 1674 1625 1609 1616 1647 1682 1717 1746 1762 1767 1766 1759 1748 1734 1714 1692 1664 1634 1596 1556 1511 1461 1406 1347 1291 1232 1175 1115 1050 984 921 870 833 813 811 808 799 765 707 618 513 420 344 374 421 509 598 661 694 699 683 659 633 614 625 650 694 732 764 787 801 812 820 821 819 815 810 801 790 777 763 748 734 717 691 649 578 497 404 369 368 400 439 470 484 470 433 390 349 321 300 304 325 357 385 393 366 299 192 65 -1 6 31 54 31 -1 -1 -1 -1 -1 -1 -1 -1 -1 -1 -1
-1 -1 -1 -1 -1 -1 -1 -1 -1 -1 -1 -1 -1 -1 -1 -1 68 164 232 279 298 322 346 407 479 542 567 542 468 376 285 247 230 238 238 253 274 331 425 533 643 740 834 911 988 1062 1149 1252 1340 1426 1496 1556 1602 1636 1660 1676 1682 1688 1690 1705 1719 1728 1725 1700 1644 1560 1500 1505 1542 1607 1669 1713 1737 1746 1747 1742 1731 1717 1700 1677 1649 1622 1595 1561 1518 1469 1411 1350 1277 1201 1126 1053 972 884 802 737 693 680 694 722 737 734 703 642 556 449 357 286 341 434 535 599 626 622 595 555 514 502 512 574 632 680 714 734 752 766 773 776 779 783 784 781 778 774 770 763 754 739 714 670 609 533 476 453 457 477 499 509 496 457 401 353 319 305 313 335 375 412 435 431 384 300 191 118 103 109 131 115 64 -1 -1 -1 -1 -1 -1 -1 -1 -1 -1 -1
-1 -1 -1 -1 -1 -1 -1 -1 -1 -1 -1 -1 -1 -1 -1 -1 17 134 234 306 360 389 417 444 497 549 580 561 487 381 305 250 231 220 224 224 242 288 376 494 626 754 860 963 1043 1118 1192 1273 1358 1426 1489 1536 1570 1594 1609 1617 1618 1614 1628 1647 1668 1685 1692 1674 1621 1532 1426 1383 1439 1534 1619 1674 1702 1710 1711 1707 1699 1687 1670 1647 1620 1593 1571 1544 1507 1459 1405 1338 1255 1157 1054 957 851 732 631 548 501 500 545 602 646 669 665 628 560 464 351 285 280 396 489 542 554 533 485 426 389 380 445 522 592 637 659 681 694 707 713 716 726 734 740 742 743 748 751 754 752 745 726 694 647 598 558 538 541 547 550 536 497 431 364 315 293 294 317 361 411 457 479 462 409 325 260 225 215 217 200 160 85 -1 -1 -1 -1 -1 -1 -1 -1 -1 -1 -1
-1 -1 -1 -1 -1 -1 -1 -1 -1 -1 -1 -1 -1 -1 -1 -1 -1 83 206 310 386 444 480 510 538 575 599 587 525 435 356 302 266 250 243 248 248 277 350 469 608 754 884 990 1087 1165 1236 1304 1368 1427 1473 1505 1525 1537 1543 1540 1535 1535 1553 1582 1610 1638 1650 1639 1596 1514 1409 1321 1364 1466 1570 1633 1659 1662 1656 1654 1654 1647 1633 1604 1572 1547 1527 1503 1473 1432 1381 1316 1229 1121 993 865 726 597 474 400 359 351 411 474 535 576 590 577 522 432 326 244 292 376 455 484 473 424 354 299 270 330 415 498 556 587 606 618 629 637 642 654 662 673 680 684 693 703 714 722 731 734 728 711 685 657 631 614 610 606 588 550 482 407 331 294 283 291 329 382 441 492 515 498 448 391 352 325 310 290 251 188 101 3 -1 -1 -1 -1 -1 -1 -1 -1 -1 -1
-1 -1 -1 -1 -1 -1 -1 -1 -1 -1 -1 -1 -1 -1 -1 -1 -1 38 152 281 386 464 522 560 589 611 628 623 583 515 449 391 347 316 307 303 310 314 366 473 618 761 899 1017 1112 1197 1266 1326 1377 1418 1448 1462 1465 1466 1458 1450 1442 1454 1473 1514 1555 1584 1598 1590 1555 1488 1395 1316 1298 1411 1526 1592 1611 1601 1584 1580 1589 1597 1587 1557 1514 1484 1457 1437 1413 1385 1344 1286 1206 1101 981 836 694 566 491 433 397 366 325 375 421 467 497 498 457 375 276 227 284 371 417 417 371 299 225 182 238 321 404 472 512 533 541 549 555 561 572 577 589 598 601 616 627 643 655 675 689 706 714 714 707 696 682 670 661 647 614 550 475 381 333 306 295 308 347 412 476 525 551 539 503 465 433 407 376 338 282 207 118 25 -1 -1 -1 -1 -1 -1 -1 -1 -1 -1
-1 -1 -1 -1 -1 -1 -1 -1 -1 -1 -1 -1 -1 -1 -1 -1 -1 -1 98 215 345 449 527 581 617 642 660 665 644 605 553 503 454 417 396 399 406 418 444 525 647 791 921 1042 1138 1216 1283 1336 1371 1394 1404 1400 1390 1374 1365 1349 1351 1360 1406 1454 1494 1522 1535 1524 1492 1433 1351 1287 1275 1393 1505 1559 1558 1520 1488 1488 1509 1532 1534 1507 1451 1398 1363 1335 1328 1316 1291 1247 1181 1101 998 881 763 671 608 561 510 449 385 308 331 365 403 414 383 310 237 210 284 350 371 333 255 164 106 141 234 326 396 435 459 466 471 468 478 488 487 493 497 504 521 531 551 565 587 604 633 658 682 699 708 708 704 697 688 669 626 562 467 416 373 352 344 348 387 452 519 566 588 586 561 530 499 463 420 365 296 215 123 32 -1 -1 -1 -1 -1 -1 -1 -1 -1 -1
-1 -1 -1 -1 -1 -1 -1 -1 -1 -1 -1 -1 -1 -1 41 67 66 52 40 149 264 390 485 554 603 642 676 696 700 684 654 613 573 537 511 511 528 550 574 626 721 841 966 1071 1163 1234 1289 1328 1348 1352 1344 1326 1299 1282 1257 1253 1251 1299 1346 1392 1428 1454 1457 1443 1403 1342 1288 1237 1325 1419 1506 1533 1492 1418 1368 1368 1408 1451 1472 1455 1391 1311 1235 1212 1207 1218 1214 1195 1152 1088 1012 928 846 774 718 667 610 540 451 362 275 292 316 333 314 253 191 219 279 325 313 246 139 56 56 140 236 320 365 386 387 391 388 395 402 398 397 385 390 404 413 438 456 477 488 524 554 597 637 667 684 688 688 684 681 669 638 577 523 477 454 427 416 424 448 504 569 613 634 633 613 582 546 499 440 371 287 193 97 0 -1 -1 -1 -1 -1 -1 -1 -1 -1 -1
-1 -1 -1 -1 -1 -1 -1 -1 -1 -1 16 67 81 86 76 123 140 127 104 79 183 280 383 458 522 588 650 703 734 747 737 716 686 656 637 628 651 679 715 752 821 914 1016 1110 1188 1248 1287 1307 1307 1294 1269 1235 1214 1183 1163 1151 1200 1244 1287 1326 1361 1374 1375 1345 1297 1257 1212 1286 1369 1465 1515 1508 1422 1293 1222 1222 1285 1352 1398 1401 1355 1258 1143 1065 1064 1079 1117 1123 1100 1055 997 936 875 817 765 715 659 593 511 411 321 238 249 260 251 204 167 207 269 295 260 169 62 11 58 149 235 289 314 311 312 302 314 320 315 309 283 275 269 279 305 333 350 353 385 419 478 534 587 618 629 631 621 618 628 642 639 620 592 567 541 523 502 505 527 568 620 662 678 676 658 622 577 516 439 344 235 118 13 -1 -1 -1 -1 -1 -1 -1 -1 -1 -1 -1
-1 -1 -1 -1 -1 -1 -1 -1 -1 -1 28 113 162 177 180 165 201 204 179 144 93 167 223 293 368 470 582 678 745 785 802 799 785 769 750 750 762 793 828 876 927 993 1071 1148 1211 1254 1274 1273 1254 1222 1181 1151 1120 1098 1081 1113 1158 1196 1224 1257 1283 1296 1280 1244 1210 1180 1253 1335 1431 1497 1526 1488 1375 1197 1066 1065 1133 1227 1300 1336 1317 1246 1120 972 902 938 992 1027 1025 994 947 898 848 800 752 705 655 599 532 449 352 273 199 203 199 169 147 192 251 269 223 125 30 -1 58 146 208 238 235 233 217 229 241 239 234 202 176 141 142 155 199 225 226 221 260 329 407 477 522 542 546 528 500 495 528 582 630 655 659 646 630 611 595 587 606 636 677 710 723 716 691 648 590 513 406 276 128 -1 -1 -1 -1 -1 -1 -1 -1 -1 -1 -1 -1 -1
-1 -1 -1 -1 -1 -1 -1 -1 -1 -1 4 119 209 262 275 271 247 268 256 210 151 79 105 106 197 343 497 632 731 801 844 865 866 862 857 855 866 888 925 971 1022 1071 1126 1184 1230 1251 1248 1226 1192 1149 1104 1069 1046 1037 1061 1096 1124 1141 1163 1183 1207 1208 1188 1160 1144 1220 1306 1401 1475 1523 1530 1482 1361 1196 1015 917 978 1068 1174 1244 1266 1222 1109 943 790 781 846 904 925 907 866 825 784 744 700 656 610 565 517 455 380 290 220 158 161 140 129 173 229 246 206 120 27 -1 51 117 157 158 156 131 136 152 170 179 147 104 44 24 8 65 106 114 90 117 158 253 342 402 431 439 424 385 349 341 419 522 612 675 706 713 703 689 675 671 680 705 731 757 764 750 714 662 588 482 345 172 2 -1 -1 -1 -1 -1 -1 -1 -1 -1 -1 -1 -1 -1
-1 -1 -1 -1 -1 -1 -1 -1 -1 -1 -1 98 219 311 359 364 350 314 315 285 231 168 79 75 135 263 426 575 702 798 868 908 930 940 946 948 957 975 1008 1051 1097 1140 1179 1217 1244 1246 1217 1170 1126 1085 1042 1013 1005 1025 1059 1081 1081 1085 1093 1117 1129 1126 1112 1106 1181 1269 1367 1446 1504 1534 1530 1482 1387 1242 1079 943 831 912 1023 1135 1183 1161 1066 892 698 628 689 766 800 790 759 724 700 666 629 584 540 503 473 437 381 310 232 175 123 119 112 154 202 223 198 129 48 -1 24 68 80 85 58 53 52 86 130 129 82 -1 -1 -1 -1 -1 13 -1 3 9 101 196 269 308 317 306 274 244 207 262 367 488 601 680 734 759 764 755 745 744 753 766 787 801 801 778 735 667 575 448 280 110 -1 -1 -1 -1 -1 -1 -1 -1 -1 -1 -1 -1 -1 -1
-1 -1 -1 -1 -1 -1 -1 -1 -1 -1 -1 50 204 324 409 446 437 406 348 338 313 272 239 219 225 287 392 532 667 786 872 938 975 1002 1016 1027 1035 1052 1078 1115 1157 1193 1223 1245 1254 1239 1196 1132 1073 1036 1004 991 999 1035 1059 1056 1037 1022 1038 1054 1061 1060 1069 1142 1224 1321 1404 1470 1513 1532 1524 1486 1413 1301 1161 982 839 762 894 1013 1066 1051 966 803 601 503 548 624 662 654 626 608 593 582 550 505 458 428 416 404 374 323 258 189 138 97 112 135 179 203 191 143 70 4 -1 5 18 4 0 -1 6 56 98 104 44 -1 -1 -1 -1 -1 -1 -1 -1 -1 61 135 184 197 181 156 147 129 191 284 398 506 602 686 747 787 807 810 807 806 814 824 835 842 832 804 751 677 570 440 295 107 -1 -1 -1 -1 -1 -1 -1 -1 -1 -1 -1 -1 -1 -1
-1 -1 -1 -1 -1 -1 -1 -1 -1 -1 -1 -1 156 311 426 495 512 482 427 356 354 368 387 397 406 417 440 520 646 764 869 949 1009 1045 1073 1090 1104 1118 1140 1168 1201 1233 1254 1263 1257 1234 1188 1125 1053 1009 994 989 1015 1041 1052 1033 995 987 992 1004 1012 1031 1100 1178 1270 1352 1423 1473 1505 1517 1510 1483 1427 1342 1212 1044 839 716 782 880 912 885 812 677 508 416 435 495 529 520 494 477 488 493 470 422 376 352 355 366 362 331 278 215 151 112 99 125 159 186 186 152 92 30 -1 -1 -1 -1 -1 -1 -1 41 83 90 46 -1 -1 -1 -1 -1 -1 -1 -1 -1 11 65 88 80 56 41 49 124 220 350 463 562 639 702 760 806 836 853 857 860 863 872 877 876 863 828 771 689 598 486 354 214 77 -1 -1 -1 -1 -1 -1 -1 -1 -1 -1 -1 -1 -1
-1 -1 -1 -1 -1 -1 -1 -1 -1 -1 -1 -1 95 267 412 509 556 549 487 407 357 404 470 523 554 562 566 579 649 763 868 957 1027 1079 1114 1141 1158 1176 1193 1213 1236 1257 1268 1267 1252 1223 1183 1127 1067 1017 991 1000 1019 1036 1033 1010 982 961 967 972 999 1065 1134 1213 1291 1364 1420 1462 1486 1494 1490 1469 1433 1361 1255 1095 898 713 713 734 733 692 631 543 437 375 376 411 435 430 404 390 405 408 393 350 312 296 308 330 341 326 288 231 174 125 108 118 145 170 177 156 112 53 0 -1 -1 -1 -1 -1 2 38 70 79 50 -1 -1 -1 -1 -1 -1 -1 -1 -1 -1 -1 3 -1 -1 -1 29 128 265 396 518 611 683 736 780 820 857 882 896 902 906 908 911 905 887 850 791 720 641 547 444 326 216 147 109 75 16 -1 -1 -1 -1 -1 -1 -1 -1 -1
-1 -1 -1 -1 -1 -1 -1 -1 -1 -1 -1 -1 33 210 373 498 574 590 544 451 374 400 483 572 636 671 680 692 713 780 880 968 1042 1101 1148 1179 1202 1221 1238 1253 1265 1272 1270 1256 1233 1203 1167 1126 1079 1033 1001 997 1007 1011 1006 988 972 962 963 989 1033 1093 1166 1230 1294 1356 1407 1441 1459 1464 1461 1451 1424 1373 1283 1156 985 816 664 652 593 567 530 487 441 416 407 414 424 425 418 398 366 356 328 308 286 283 286 300 307 305 281 240 187 140 113 112 131 153 163 153 120 76 22 -1 -1 -1 -1 -1 19 39 53 57 38 -1 -1 -1 -1 -1 -1 -1 -1 -1 -1 -1 -1 -1 -1 -1 23 137 275 415 538 637 710 766 808 842 874 904 923 932 937 938 937 928 907 869 817 755 684 605 516 420 332 272 214 154 76 -1 -1 -1 -1 -1 -1 -1 -1 -1
-1 -1 -1 -1 -1 -1 -1 -1 -1 -1 -1 -1 7 158 322 468 568 612 588 509 423 389 461 553 651 720 763 785 811 844 904 988 1060 1123 1171 1209 1235 1255 1271 1280 1284 1279 1262 1235 1199 1163 1134 1106 1077 1043 1013 991 986 983 976 971 968 978 1000 1032 1074 1123 1174 1232 1288 1342 1386 1415 1427 1429 1429 1425 1410 1374 1311 1213 1082 922 778 655 654 630 612 587 566 542 526 516 510 512 500 464 415 355 326 310 311 307 297 275 271 265 258 231 191 145 109 97 111 131 143 137 116 81 41 1 -1 -1 0 22 34 33 25 18 3 -1 -1 -1 -1 -1 -1 -1 -1 -1 -1 -1 -1 -1 -1 -1 16 133 268 405 529 634 716 777 826 865 894 920 939 952 956 956 951 940 920 886 842 786 724 650 572 489 416 353 285 210 122 20 -1 -1 -1 -1 -1 -1 -1 -1
-1 -1 -1 -1 -1 -1 -1 -1 -1 15 47 66 66 139 282 425 548 618 628 579 503 449 421 509 611 713 791 846 883 919 964 1016 1086 1144 1194 1233 1261 1280 1289 1293 1288 1275 1250 1213 1163 1117 1084 1072 1058 1041 1017 994 972 963 962 967 983 1007 1037 1068 1099 1136 1178 1229 1284 1331 1367 1386 1393 1393 1390 1391 1389 1371 1330 1260 1162 1041 918 842 797 790 774 755 731 709 684 658 643 625 601 557 490 431 387 371 362 352 319 275 228 219 215 207 177 137 99 78 88 104 113 111 95 71 39 12 -1 4 21 40 42 23 -1 -1 -1 -1 -1 -1 -1 -1 -1 -1 -1 -1 -1 -1 5 0 -1 -1 30 121 252 388 511 617 704 776 833 879 911 935 952 961 964 959 951 940 923 896 858 811 753 687 612 541 472 406 330 251 157 56 -1 -1 -1 -1 -1 -1 -1 -1
-1 -1 -1 -1 -1 -1 -1 -1 58 120 165 193 203 197 266 399 520 617 661 651 603 521 463 453 553 659 768 859 924 974 1020 1065 1116 1171 1216 1253 1279 1294 1298 1292 1280 1261 1235 1197 1151 1097 1054 1037 1033 1024 1013 992 972 962 966 984 1008 1034 1057 1076 1098 1128 1181 1235 1283 1323 1347 1357 1356 1351 1346 1352 1357 1355 1335 1290 1221 1135 1052 989 946 922 907 889 867 844 816 784 748 717 677 625 566 509 468 439 419 390 347 280 215 170 170 171 152 118 82 60 66 78 80 72 61 41 18 0 -1 9 31 45 43 15 -1 -1 -1 -1 -1 -1 -1 -1 -1 -1 -1 -1 -1 0 56 73 61 45 71 149 254 379 502 605 692 772 836 884 921 944 957 963 959 947 933 923 912 893 864 826 773 711 646 578 512 439 364 275 179 64 -1 -1 -1 -1 -1 -1 -1 -1
-1 -1 -1 -1 -1 -1 -1 -1 119 205 263 305 323 325 326 394 513 608 685 710 686 623 550 510 498 593 715 833 931 1002 1057 1106 1151 1196 1237 1268 1290 1299 1296 1281 1259 1235 1214 1187 1149 1103 1059 1023 1009 1005 998 988 977 973 989 1009 1029 1042 1047 1058 1078 1133 1188 1240 1282 1309 1321 1322 1314 1301 1296 1300 1315 1327 1327 1304 1257 1193 1123 1062 1013 982 964 953 939 919 892 852 809 762 712 656 602 551 511 478 448 412 362 295 215 150 136 131 118 92 63 46 48 54 48 28 15 0 -1 -1 -1 -1 21 36 35 6 -1 -1 -1 -1 -1 -1 -1 -1 -1 -1 -1 -1 -1 7 93 146 161 158 164 213 298 402 508 610 700 773 836 888 923 947 958 956 941 919 899 886 882 875 856 826 785 732 670 608 538 464 380 283 170 48 -1 -1 -1 -1 -1 -1 -1 -1
-1 -1 -1 -1 -1 -1 -1 -1 134 253 335 391 427 435 446 460 517 618 696 750 755 717 666 603 573 567 668 790 907 1001 1073 1130 1178 1219 1255 1280 1295 1299 1288 1265 1229 1199 1179 1165 1144 1112 1070 1036 1012 1000 994 988 986 996 1010 1025 1029 1020 1013 1023 1085 1142 1196 1238 1266 1278 1284 1282 1267 1247 1232 1238 1259 1291 1310 1302 1270 1214 1147 1072 1007 963 946 944 940 929 903 863 813 757 700 644 590 543 503 471 440 408 366 308 235 170 113 98 84 65 47 36 39 38 23 -1 -1 -1 -1 -1 -1 -1 -1 14 22 7 -1 -1 -1 -1 -1 -1 -1 -1 -1 -1 -1 -1 -1 8 114 198 247 269 288 321 376 453 544 635 717 786 842 888 924 944 950 943 918 879 845 830 831 833 830 812 781 738 685 623 550 467 371 255 127 -1 -1 -1 -1 -1 -1 -1 -1 -1
-1 -1 -1 -1 -1 -1 -1 -1 114 257 369 447 500 536 551 563 582 632 716 776 808 803 767 729 676 664 672 764 877 980 1068 1139 1193 1235 1265 1286 1297 1294 1278 1248 1208 1155 1133 1125 1120 1105 1082 1056 1035 1018 1007 1002 1005 1014 1020 1018 1003 977 965 1018 1087 1151 1192 1217 1227 1230 1235 1237 1229 1194 1164 1167 1207 1253 1285 1290 1264 1213 1139 1054 967 899 875 874 881 879 858 819 767 707 645 590 539 495 458 426 402 379 353 313 258 191 133 87 63 49 39 38 36 32 11 -1 -1 -1 -1 -1 -1 -1 -1 -1 14 17 2 -1 -1 -1 -1 -1 -1 -1 -1 -1 19 34 47 59 124 224 303 356 393 431 477 527 596 673 743 805 854 892 921 935 938 925 893 837 775 750 747 766 777 777 759 726 678 615 537 439 324 194 51 -1 -1 -1 -1 -1 -1 -1 -1 -1
-1 -1 -1 -1 -1 -1 -1 -1 76 233 368 473 553 602 636 654 671 693 740 808 849 866 859 829 807 772 771 793 870 964 1056 1133 1196 1240 1270 1287 1293 1287 1266 1236 1191 1141 1081 1072 1070 1076 1073 1066 1054 1042 1029 1021 1016 1013 1002 980 947 931 939 1019 1093 1141 1164 1168 1162 1168 1176 1203 1199 1154 1101 1105 1159 1221 1262 1270 1249 1201 1128 1038 938 844 783 773 780 783 765 731 679 618 555 501 458 420 388 364 347 339 327 307 271 224 167 114 82 62 56 52 49 40 25 2 -1 -1 -1 -1 -1 -1 -1 -1 12 37 46 43 34 24 11 -1 -1 -1 -1 37 85 125 140 157 171 236 328 408 468 518 563 611 657 715 775 825 865 894 912 920 917 903 869 808 717 644 638 663 697 714 712 688 641 576 492 381 251 103 -1 -1 -1 -1 -1 -1 -1 -1 -1 -1
-1 -1 -1 -1 -1 -1 -1 -1 31 197 347 477 575 649 695 729 749 770 795 839 889 917 926 923 907 895 875 885 914 979 1052 1129 1191 1237 1268 1284 1285 1274 1250 1217 1178 1129 1075 1007 1007 1012 1033 1043 1049 1046 1036 1020 1002 979 947 908 884 880 958 1026 1084 1109 1106 1089 1088 1091 1144 1178 1174 1125 1057 1060 1121 1194 1238 1247 1227 1185 1121 1037 935 829 728 671 659 651 636 602 556 494 430 383 350 329 310 295 289 291 294 293 278 247 203 155 119 97 82 71 61 53 41 25 5 -1 -1 -1 -1 -1 -1 -1 25 62 88 103 107 104 101 86 68 45 60 88 140 187 227 243 262 281 347 434 510 574 628 674 721 762 809 848 873 887 893 893 889 877 847 787 693 575 513 533 582 623 643 624 573 499 407 293 153 2 -1 -1 -1 -1 -1 -1 -1 -1 -1 -1
-1 -1 -1 -1 -1 -1 -1 -1 -1 159 318 464 582 668 734 779 815 837 863 892 929 962 983 993 996 990 983 980 997 1025 1077 1134 1190 1233 1263 1277 1277 1258 1225 1187 1152 1115 1063 1005 926 936 949 984 1003 1014 1007 983 948 902 855 821 809 892 964 1025 1049 1043 1014 997 990 1069 1126 1159 1147 1092 1043 1030 1106 1178 1216 1219 1197 1159 1106 1033 942 835 725 614 544 518 483 455 409 348 283 238 224 224 234 229 236 247 266 278 276 258 226 189 156 127 104 83 69 59 48 35 19 -1 -1 -1 -1 -1 -1 1 44 88 123 149 162 167 162 155 137 120 108 139 182 237 282 322 341 366 395 457 533 605 665 719 766 808 839 864 872 868 858 852 849 842 823 776 694 582 447 406 459 524 545 528 471 381 275 164 35 -1 -1 -1 -1 -1 -1 -1 -1 -1 -1 -1
-1 -1 -1 -1 -1 -1 -1 -1 -1 115 296 441 571 676 755 814 858 895 922 949 979 1008 1032 1050 1061 1069 1069 1071 1076 1094 1121 1160 1199 1234 1259 1271 1266 1242 1196 1143 1105 1073 1041 985 916 830 848 877 919 938 934 900 846 787 742 722 801 881 952 983 977 939 908 884 976 1058 1123 1139 1106 1054 1003 1046 1110 1169 1194 1184 1151 1110 1062 1003 927 836 732 621 509 436 386 338 314 233 182 140 115 145 150 179 186 220 246 260 262 252 232 204 173 143 111 82 59 44 34 24 11 -1 -1 -1 -1 -1 -1 28 70 112 150 179 197 203 199 189 174 158 153 160 209 263 324 372 413 439 472 505 560 629 694 749 797 836 864 873 860 829 802 791 788 793 786 760 704 605 485 362 375 406 428 403 335 226 106 -1 -1 -1 -1 -1 -1 -1 -1 -1 -1 -1 -1 -1
-1 -1 -1 -1 -1 -1 -1 -1 -1 72 257 419 551 670 763 837 890 932 970 1000 1028 1053 1076 1099 1117 1124 1133 1138 1145 1152 1169 1189 1215 1238 1254 1260 1252 1224 1173 1099 1038 1007 986 952 880 787 709 746 796 827 822 776 708 650 619 685 765 846 890 895 859 818 780 877 979 1071 1119 1118 1070 996 1003 1050 1121 1166 1172 1139 1083 1028 980 928 867 800 721 634 547 470 414 361 280 269 228 191 149 86 120 118 179 210 231 238 236 230 218 199 174 141 103 63 29 8 -1 -1 -1 -1 -1 -1 -1 -1 23 58 95 134 168 196 212 215 207 192 173 158 151 170 204 272 337 404 457 502 534 570 605 661 719 775 819 856 878 876 843 778 723 701 707 719 732 727 694 630 526 422 311 303 290 261 191 89 -1 -1 -1 -1 -1 -1 -1 -1 -1 -1 -1 -1 -1 -1
-1 -1 -1 -1 -1 -1 -1 -1 -1 46 213 386 534 658 764 846 911 960 1002 1040 1069 1094 1118 1138 1156 1170 1178 1186 1190 1194 1197 1207 1221 1235 1244 1245 1233 1204 1152 1073 979 916 899 883 825 715 606 607 659 691 677 626 561 512 556 624 706 764 784 760 725 684 780 892 1008 1085 1115 1095 1037 990 980 1058 1127 1161 1144 1081 989 910 849 796 756 706 661 610 558 512 465 409 363 322 296 257 200 146 65 115 151 195 207 204 196 190 183 176 157 125 83 34 -1 -1 -1 -1 -1 -1 -1 -1 -1 14 47 81 115 147 176 197 208 206 191 169 142 125 119 148 203 260 339 408 481 539 586 622 663 700 751 796 838 868 884 874 825 736 632 590 592 623 653 667 655 616 550 452 352 235 176 151 98 5 12 -1 19 42 59 27 -1 -1 -1 -1 -1 -1 -1 -1
-1 -1 -1 -1 -1 -1 -1 -1 -1 31 203 358 514 650 756 847 919 979 1027 1068 1099 1127 1151 1170 1187 1201 1212 1215 1215 1208 1203 1202 1208 1218 1224 1224 1213 1185 1134 1054 939 825 790 777 739 632 514 491 527 548 530 482 425 434 473 542 605 643 644 628 600 689 809 938 1036 1092 1102 1069 1012 965 1001 1068 1131 1151 1114 1018 887 759 674 632 594 576 549 531 512 489 464 430 387 345 304 265 217 151 90 44 112 156 165 154 140 131 137 140 130 105 60 2 -1 -1 -1 -1 -1 -1 -1 -1 -1 15 53 90 121 147 169 184 188 183 165 134 103 82 94 130 186 262 326 411 482 555 616 665 705 746 784 823 855 879 888 870 814 711 567 472 468 501 547 574 578 557 514 449 364 279 201 116 79 122 133 157 158 155 122 56 -1 -1 -1 -1 -1 -1 -1 -1
-1 -1 -1 -1 -1 -1 -1 -1 -1 61 211 367 508 635 751 845 923 989 1044 1088 1123 1152 1178 1198 1214 1227 1234 1231 1217 1196 1178 1169 1170 1180 1192 1195 1190 1165 1120 1036 914 761 669 655 620 539 432 401 416 430 410 368 357 358 395 443 489 518 528 535 625 738 873 987 1061 1093 1080 1034 983 963 1021 1092 1138 1142 1085 966 800 638 526 476 487 452 438 438 426 419 410 394 358 310 263 222 175 116 47 3 52 96 98 81 65 64 82 98 102 83 41 -1 -1 -1 -1 -1 -1 -1 -1 -1 -1 -1 41 80 108 128 144 154 160 152 134 104 71 57 76 122 185 252 332 401 483 555 630 689 738 778 817 848 875 890 890 866 809 705 577 434 366 394 423 452 458 446 419 380 333 288 242 214 216 242 271 272 258 216 147 45 -1 -1 -1 -1 -1 -1 -1 -1
-1 -1 -1 -1 -1 -1 -1 -1 -1 105 249 397 522 640 745 843 924 991 1051 1099 1138 1170 1196 1217 1233 1243 1245 1232 1201 1159 1121 1104 1102 1121 1142 1158 1160 1142 1100 1030 911 770 619 536 509 447 369 338 346 349 341 325 308 317 345 387 429 464 504 593 698 822 937 1026 1078 1085 1055 998 953 984 1047 1111 1148 1139 1071 943 779 612 504 480 455 470 442 389 355 340 342 336 314 269 222 172 127 63 5 -1 9 20 14 -1 -1 -1 19 56 74 67 29 -1 -1 -1 -1 -1 -1 -1 -1 -1 -1 -1 10 47 71 86 99 114 123 122 105 78 52 50 67 114 177 256 327 408 479 560 631 701 757 803 841 871 890 899 891 863 809 731 617 503 405 320 327 319 317 310 289 265 242 231 246 274 304 332 343 331 289 221 124 -1 -1 -1 -1 -1 -1 -1 -1 -1
-1 -1 -1 -1 -1 -1 -1 -1 2 149 293 426 554 663 759 845 923 993 1053 1103 1145 1177 1206 1227 1242 1249 1245 1224 1180 1109 1040 1001 1007 1035 1078 1106 1117 1109 1078 1020 934 811 668 525 448 391 342 313 310 318 327 320 314 320 362 425 487 547 618 706 806 905 994 1055 1082 1069 1022 968 947 1001 1067 1126 1156 1143 1082 972 834 709 631 587 580 565 525 447 356 301 291 299 296 275 243 199 132 83 66 41 -1 -1 -1 -1 -1 -1 -1 15 50 54 26 -1 -1 -1 -1 -1 -1 -1 -1 -1 -1 -1 -1 -1 11 23 38 64 90 96 84 61 46 48 66 100 167 245 333 410 492 563 640 704 769 819 860 887 901 903 890 862 816 754 680 589 485 392 299 265 245 228 207 184 162 160 196 247 299 333 343 317 258 170 58 -1 -1 -1 -1 -1 -1 -1 -1 -1
-1 -1 -1 -1 -1 -1 -1 -1 11 177 323 463 586 697 785 864 937 1002 1056 1105 1141 1175 1199 1220 1235 1241 1237 1211 1154 1062 940 866 863 923 986 1036 1058 1061 1042 1003 943 853 733 609 502 421 359 326 315 333 352 367 365 375 416 499 591 672 751 829 907 976 1033 1068 1073 1044 988 938 959 1010 1078 1131 1159 1153 1108 1029 938 856 793 753 730 697 634 527 398 309 283 304 326 329 309 272 227 190 162 128 86 46 14 -1 -1 -1 -1 -1 29 46 28 -1 -1 -1 -1 -1 -1 20 18 -1 -1 -1 -1 -1 -1 -1 -1 33 72 84 80 69 55 47 60 100 151 234 322 418 499 578 648 715 777 830 870 897 906 898 879 849 812 770 719 654 577 489 413 354 318 288 257 212 176 141 137 177 227 266 274 245 176 80 -1 -1 -1 -1 -1 -1 -1 -1 -1 -1
-1 -1 -1 -1 -1 -1 -1 -1 25 184 348 491 618 725 817 893 956 1012 1063 1098 1132 1155 1177 1194 1211 1222 1221 1196 1131 1012 849 695 687 760 863 939 984 999 987 966 926 868 787 690 586 487 402 350 356 385 419 448 467 473 503 574 676 772 853 919 974 1020 1049 1060 1049 1013 960 927 957 1016 1071 1122 1153 1160 1136 1091 1038 986 939 900 861 812 725 596 447 339 321 356 392 404 390 360 325 289 253 212 167 121 76 30 -1 -1 -1 -1 11 37 27 -1 -1 -1 -1 -1 31 64 63 27 -1 -1 -1 -1 -1 -1 20 60 78 101 102 92 78 65 65 94 153 222 315 412 505 588 661 725 783 836 876 902 907 892 855 818 785 757 731 692 643 588 533 487 448 411 369 315 240 176 137 131 152 172 173 145 85 -1 -1 -1 -1 -1 -1 -1 -1 -1 -1 -1
-1 -1 -1 -1 -1 -1 -1 -1 20 196 355 508 638 747 837 912 971 1020 1055 1084 1100 1113 1127 1145 1169 1194 1204 1182 1112 982 770 563 474 574 707 815 885 911 918 904 883 849 802 734 646 535 440 386 416 467 516 559 593 610 621 662 742 835 911 967 1004 1027 1037 1032 1015 977 939 918 956 1002 1051 1094 1133 1156 1157 1141 1115 1085 1047 1006 955 886 782 646 488 392 397 443 478 482 460 427 386 344 303 255 201 144 86 26 -1 -1 -1 -1 -1 23 22 -1 -1 -1 -1 -1 51 93 99 66 1 -1 -1 -1 -1 20 75 108 129 136 143 134 120 105 90 105 156 231 311 403 500 588 664 732 790 840 879 904 907 885 840 780 735 722 713 700 674 642 610 579 547 512 469 404 323 252 194 158 132 113 98 72 27 5 -1 -1 -1 -1 -1 -1 -1 -1 -1 -1
-1 -1 -1 -1 -1 -1 -1 -1 9 181 351 502 637 750 840 911 965 1002 1025 1034 1034 1031 1043 1070 1124 1168 1189 1172 1103 964 754 485 330 383 523 656 748 799 815 817 812 801 781 741 667 566 457 440 492 561 625 680 723 747 756 769 808 874 939 983 1002 1007 1002 993 969 942 910 924 944 977 1010 1058 1106 1145 1166 1174 1167 1148 1117 1070 1008 919 809 661 537 464 503 542 557 542 505 456 404 354 303 249 185 111 43 -1 -1 -1 -1 -1 -1 13 21 -1 -1 -1 -1 -1 54 107 124 98 32 -1 -1 -1 0 68 124 161 179 189 191 192 178 161 149 145 180 249 328 410 492 581 661 732 795 845 884 907 907 883 834 771 709 678 684 679 669 654 638 620 600 571 528 470 401 345 294 240 188 136 89 62 63 51 29 -1 -1 -1 -1 -1 -1 -1 -1 -1
-1 -1 -1 -1 -1 -1 -1 -1 -1 144 315 474 611 726 815 881 925 949 953 937 910 903 921 999 1083 1148 1176 1163 1095 965 769 515 267 210 335 479 579 645 672 694 709 727 737 724 675 581 515 512 570 650 723 787 837 867 875 873 884 913 955 983 987 977 962 944 928 903 911 911 920 932 971 1024 1078 1126 1166 1189 1196 1185 1154 1104 1029 937 804 688 577 589 609 626 612 572 510 443 379 316 258 200 129 60 -1 -1 -1 -1 -1 -1 -1 17 33 19 -1 -1 -1 -1 48 107 135 117 53 -1 -1 -1 34 112 169 206 230 240 247 246 242 230 221 220 234 281 355 432 503 579 658 733 796 848 888 909 909 884 839 780 719 678 648 648 644 639 634 628 618 597 561 515 477 435 388 331 265 196 142 117 109 95 52 -1 -1 -1 -1 -1 -1 -1 -1 -1
-1 -1 -1 -1 -1 -1 -1 -1 -1 79 251 414 554 667 756 814 844 846 822 772 734 726 816 935 1046 1127 1163 1153 1091 979 796 563 303 129 171 282 382 436 483 512 566 625 674 702 683 638 594 597 645 721 801 870 922 955 965 957 952 957 972 985 973 948 922 905 888 897 896 889 879 892 940 997 1052 1108 1155 1190 1207 1203 1174 1119 1041 932 824 700 688 693 701 678 631 559 474 386 305 239 174 117 62 0 0 -1 -1 -1 -1 -1 10 42 57 56 30 -1 -1 -1 32 100 136 126 65 -1 -1 -1 58 149 211 251 277 291 296 296 293 293 293 298 308 338 389 457 527 593 664 730 794 848 890 911 911 890 848 795 740 686 647 620 616 616 620 622 622 610 587 561 534 498 449 380 298 221 168 141 126 98 36 -1 -1 -1 -1 -1 -1 -1 -1 -1
-1 -1 -1 -1 -1 -1 -1 -1 -1 -1 154 314 454 571 655 703 713 685 621 552 505 585 725 883 1013 1099 1143 1140 1088 981 819 589 343 109 44 96 167 218 246 308 388 490 604 679 711 703 686 682 719 783 860 928 982 1011 1021 1016 1003 999 998 992 967 927 896 874 881 884 874 852 837 869 913 967 1024 1079 1132 1177 1205 1209 1182 1128 1041 947 833 801 782 780 751 692 604 500 395 288 197 127 92 35 17 40 41 38 15 14 18 36 55 78 98 100 82 41 -1 -1 15 86 131 129 74 -1 -1 -1 77 173 246 293 317 330 331 330 332 335 344 358 375 398 430 481 542 607 666 733 793 849 890 912 914 895 858 809 753 699 651 617 598 600 611 624 629 625 613 596 568 523 455 366 257 158 99 83 83 53 -1 -1 -1 -1 -1 -1 -1 -1 -1 -1
-1 -1 -1 -1 -1 -1 -1 -1 -1 -1 24 167 304 426 511 544 523 461 372 292 335 470 660 833 973 1068 1117 1121 1073 974 814 616 367 151 -1 -1 9 60 115 169 236 384 523 652 725 760 767 772 791 841 907 970 1019 1045 1053 1049 1040 1032 1024 1007 973 929 884 868 875 877 849 809 809 834 878 923 971 1027 1091 1149 1192 1206 1188 1136 1061 963 919 884 866 824 760 659 532 391 267 181 89 62 47 72 77 90 95 79 72 68 74 87 104 120 137 144 133 98 39 -1 6 69 125 132 83 -1 -1 -1 76 180 263 317 347 354 352 346 343 350 363 383 404 425 453 493 549 608 674 735 798 849 890 912 914 893 857 808 753 697 648 615 603 611 623 636 646 644 635 613 574 510 418 299 182 40 -1 -1 -1 -1 -1 -1 -1 -1 -1 -1 -1 -1 -1 -1
-1 -1 -1 -1 -1 -1 -1 -1 -1 -1 -1 -1 112 235 329 335 289 210 144 137 242 431 613 788 929 1029 1087 1095 1052 953 812 620 407 195 31 -1 -1 72 161 236 295 309 464 597 723 793 833 850 870 900 948 1001 1039 1061 1067 1065 1061 1055 1045 1021 982 936 895 871 878 875 844 796 775 795 827 858 901 959 1032 1108 1168 1197 1191 1153 1089 1031 990 956 903 830 717 583 422 261 131 81 120 123 139 144 157 153 142 132 123 121 122 127 140 156 171 181 173 141 83 26 0 63 123 143 101 22 -1 -1 53 161 253 321 357 368 360 347 335 340 352 372 388 405 433 477 533 604 671 739 798 850 890 910 908 881 838 787 729 681 639 626 632 639 651 662 669 665 647 612 554 471 356 233 98 50 -1 -1 -1 -1 -1 -1 -1 -1 -1 -1 -1 -1 -1 -1
-1 -1 -1 -1 -1 -1 -1 -1 -1 -1 -1 -1 -1 67 129 152 73 62 95 209 306 437 604 753 887 989 1052 1067 1024 929 786 611 415 222 51 -1 -1 116 241 347 404 427 402 551 682 803 872 914 938 963 993 1025 1051 1062 1064 1064 1067 1067 1056 1031 990 943 902 882 889 884 852 804 762 763 771 793 828 888 974 1064 1138 1184 1197 1178 1139 1097 1052 994 911 791 642 465 309 144 73 119 185 229 235 231 218 205 191 176 167 158 152 149 155 169 186 198 196 170 120 56 25 66 132 161 140 74 12 -1 34 116 219 300 350 367 360 341 324 316 324 336 348 354 384 433 505 583 665 731 796 849 888 906 896 860 805 747 702 666 662 664 670 680 687 692 692 679 649 593 518 415 307 182 160 110 32 -1 -1 -1 -1 -1 -1 -1 -1 -1 -1 -1 -1 -1
-1 -1 -1 -1 -1 -1 -1 -1 -1 -1 -1 -1 -1 -1 28 24 119 180 281 386 474 526 616 738 853 952 1019 1032 983 880 728 546 362 185 29 -1 -1 104 255 398 498 517 498 480 641 786 889 951 990 1017 1037 1052 1058 1055 1052 1054 1064 1068 1058 1030 987 938 900 900 906 898 864 817 771 737 744 746 772 831 920 1017 1104 1168 1201 1204 1183 1149 1095 1011 891 737 551 381 209 142 102 197 275 304 303 282 258 236 220 206 191 175 158 145 145 154 171 187 194 181 143 89 54 90 146 186 184 145 89 45 9 78 162 254 319 352 354 337 314 300 296 304 301 314 336 393 472 561 647 726 790 847 887 901 885 835 772 710 687 695 702 709 714 719 721 718 707 682 637 567 470 373 268 262 237 202 115 -1 -1 -1 -1 -1 -1 -1 -1 -1 -1 -1 -1 -1
-1 -1 -1 -1 -1 -1 -1 -1 -1 -1 49 80 75 75 40 160 265 383 483 575 632 658 670 737 833 925 984 989 924 796 622 420 229 73 -1 -1 -1 40 203 378 518 583 559 504 605 746 876 966 1021 1056 1073 1075 1065 1049 1037 1043 1057 1065 1054 1021 972 929 906 917 924 908 870 817 767 729 726 746 755 801 879 974 1069 1148 1202 1223 1217 1185 1121 1021 871 696 521 315 218 143 223 296 350 358 330 293 257 233 216 203 187 164 137 116 104 109 120 141 163 173 156 114 84 110 161 204 221 210 176 124 78 38 107 183 263 317 340 334 316 300 298 286 284 285 308 359 439 532 631 717 793 849 888 899 876 824 757 731 726 734 746 750 748 746 740 729 707 672 616 535 443 348 345 342 332 278 183 56 -1 -1 -1 -1 -1 -1 -1 -1 -1 -1 -1 -1
-1 -1 -1 -1 -1 -1 -1 -1 -1 0 106 176 217 225 261 332 441 532 623 697 742 753 748 757 826 904 951 937 843 682 468 251 46 -1 -1 -1 -1 -1 116 310 484 591 607 576 559 696 836 952 1031 1075 1093 1088 1069 1045 1031 1036 1054 1063 1050 1013 964 925 925 936 935 910 859 802 745 734 736 760 785 803 861 947 1038 1129 1196 1236 1240 1208 1141 1028 890 721 520 348 231 259 325 388 406 378 320 252 202 177 169 161 147 124 92 62 47 34 40 64 107 146 155 133 107 123 163 208 241 254 244 212 151 97 46 109 180 260 314 333 329 323 311 305 298 289 298 338 404 500 603 706 791 856 894 902 878 826 796 777 776 776 773 767 758 748 736 719 692 654 600 524 444 421 417 422 393 325 220 90 -1 -1 8 19 -1 -1 -1 -1 -1 -1 -1 -1
-1 -1 -1 -1 -1 -1 -1 -1 -1 -1 96 214 302 368 428 497 572 641 701 752 790 804 795 791 833 887 914 871 743 534 307 71 -1 -1 -1 -1 -1 -1 52 229 422 565 632 617 586 644 791 921 1017 1076 1098 1092 1069 1044 1031 1039 1058 1070 1055 1019 973 944 947 953 937 894 836 772 750 735 746 775 810 845 870 938 1027 1113 1191 1241 1256 1230 1160 1066 940 776 596 429 356 374 425 452 431 364 261 161 93 73 80 86 74 55 26 -1 -1 -1 -1 -1 37 97 137 141 130 128 158 196 234 268 284 275 236 165 93 46 108 192 277 328 348 352 346 339 326 323 315 320 373 459 574 685 786 860 901 912 890 862 839 825 812 798 778 756 736 720 705 690 667 639 596 546 511 497 491 471 417 328 214 104 32 60 75 43 -1 -1 -1 -1 -1 -1 -1 -1
-1 -1 -1 -1 -1 -1 -1 -1 -1 -1 32 186 319 433 526 602 663 709 743 770 794 812 819 821 842 879 876 798 618 392 150 43 -1 -1 -1 -1 -1 -1 74 216 375 535 637 665 654 669 758 889 995 1064 1094 1089 1065 1041 1035 1053 1078 1089 1077 1043 1002 977 971 964 928 866 798 772 778 773 761 779 827 871 918 956 1034 1117 1193 1249 1272 1252 1196 1116 1000 854 695 553 493 485 498 482 419 307 187 49 -1 -1 -1 -1 -1 -1 -1 -1 -1 -1 -1 -1 -1 46 99 138 147 149 153 179 214 257 295 313 301 253 177 114 62 136 222 306 359 386 393 386 380 364 352 331 351 427 536 664 774 858 909 926 919 900 878 852 823 791 755 718 689 670 661 649 641 627 608 587 571 559 542 497 415 303 191 113 128 131 110 44 -1 -1 -1 -1 -1 -1 -1 -1
-1 -1 -1 -1 -1 -1 -1 -1 -1 -1 -1 108 277 426 557 656 719 754 766 771 779 800 824 845 863 876 849 731 523 270 161 115 85 53 55 72 68 107 183 275 409 536 651 717 734 740 788 875 978 1053 1086 1082 1058 1039 1049 1077 1107 1122 1112 1082 1045 1016 997 970 919 837 789 800 820 830 816 800 827 895 953 1007 1054 1135 1208 1265 1293 1283 1239 1169 1063 932 795 673 605 572 541 482 362 245 100 52 -1 -1 -1 -1 -1 -1 -1 -1 -1 -1 -1 -1 -1 -1 65 114 153 166 169 171 193 231 282 327 347 329 281 200 127 75 158 257 352 410 441 448 439 428 400 385 373 415 516 637 761 854 914 942 944 928 897 857 810 763 722 679 655 637 623 618 617 620 623 621 614 602 569 507 407 287 197 192 194 177 115 12 -1 -1 -1 -1 -1 -1 -1 -1
-1 -1 -1 -1 -1 -1 -1 -1 -1 -1 -1 31 184 374 535 665 748 783 784 769 766 784 822 861 889 894 850 713 499 338 274 261 244 215 197 207 217 233 304 407 495 601 697 774 812 832 853 912 985 1052 1082 1074 1050 1041 1065 1105 1143 1160 1154 1128 1091 1055 1021 979 914 857 810 818 864 885 884 870 866 910 992 1053 1110 1160 1235 1289 1322 1320 1285 1220 1123 1003 879 768 684 624 560 447 332 185 145 79 76 37 -1 -1 -1 -1 -1 -1 -1 -1 -1 27 42 47 27 87 135 175 184 179 175 200 253 320 369 385 363 300 200 108 80 196 325 419 477 506 512 497 482 454 450 457 522 633 746 849 921 957 963 944 905 852 795 738 704 690 670 649 626 605 605 617 632 642 640 621 579 508 412 318 266 253 234 176 77 -1 -1 -1 -1 -1 -1 -1 -1 -1
-1 -1 -1 -1 -1 -1 0 89 109 64 -1 -1 98 275 478 641 749 803 806 782 764 777 820 873 915 928 886 774 630 511 443 432 416 394 373 367 384 387 428 515 617 697 779 846 891 917 947 982 1033 1073 1094 1078 1051 1052 1086 1137 1181 1203 1198 1172 1131 1087 1043 997 953 904 861 860 893 937 951 952 954 972 1026 1108 1166 1224 1268 1324 1357 1363 1332 1272 1179 1066 950 835 738 655 548 440 299 254 197 189 158 118 43 -1 -1 -1 -1 -1 -1 -1 36 79 106 95 70 41 105 163 197 191 173 176 224 294 368 414 421 378 285 162 73 140 272 406 495 550 576 578 562 555 539 554 580 652 753 853 929 970 977 954 910 855 793 760 735 719 700 674 642 615 602 618 640 652 647 623 575 506 430 355 318 278 220 129 3 -1 -1 -1 -1 -1 -1 -1 -1 -1
-1 -1 -1 -1 -1 -1 11 154 230 224 150 64 19 179 376 580 729 810 832 808 782 780 819 882 940 967 953 889 800 709 640 601 598 573 554 551 544 559 563 621 707 803 872 933 973 1008 1036 1074 1100 1126 1127 1103 1073 1069 1109 1169 1219 1245 1238 1207 1161 1109 1065 1032 1004 972 940 919 940 981 1016 1033 1049 1069 1097 1154 1233 1281 1331 1366 1401 1407 1382 1324 1233 1123 1009 893 782 671 567 437 379 328 306 269 228 164 76 -1 -1 -1 -1 -1 -1 20 85 135 157 155 109 60 67 148 200 208 181 171 202 270 349 419 453 438 369 256 140 103 224 356 489 574 625 645 651 644 648 650 678 716 790 874 944 985 992 969 926 868 829 795 768 740 711 680 648 624 611 626 647 653 640 607 556 495 425 375 310 245 155 38 -1 -1 -1 -1 -1 -1 -1 -1 -1 -1
-1 -1 -1 -1 -1 -1 -1 158 296 355 323 224 118 73 261 475 676 805 856 850 823 798 822 881 955 1007 1022 1006 953 887 825 784 756 753 735 723 722 716 727 738 802 887 970 1021 1066 1097 1131 1152 1181 1187 1182 1151 1115 1100 1136 1196 1252 1278 1272 1235 1179 1125 1082 1060 1048 1037 1016 1003 1003 1037 1077 1111 1137 1162 1192 1229 1289 1351 1388 1426 1450 1457 1436 1378 1286 1178 1065 946 829 711 592 519 469 428 377 320 252 168 93 35 71 66 13 -1 8 76 139 188 217 211 170 107 96 137 202 226 212 191 194 245 320 402 464 485 455 378 270 176 167 309 446 575 654 700 718 733 739 752 769 804 849 911 969 1004 1012 991 949 902 857 815 774 731 692 662 642 628 639 650 660 653 627 587 535 471 417 340 251 146 48 -1 -1 -1 -1 -1 -1 -1 -1 -1 -1 -1
-1 -1 -1 -1 -1 -1 -1 101 295 425 463 405 284 153 145 366 589 776 879 904 881 847 827 874 951 1033 1083 1096 1081 1040 992 953 926 908 905 889 890 878 877 887 904 974 1053 1118 1157 1193 1217 1244 1253 1264 1249 1221 1180 1150 1168 1220 1272 1301 1294 1253 1193 1128 1085 1068 1074 1084 1087 1082 1091 1108 1144 1186 1219 1249 1280 1318 1358 1409 1454 1483 1506 1511 1490 1430 1337 1232 1118 1001 885 764 666 600 546 482 405 320 224 153 82 132 149 131 69 23 64 137 201 248 275 275 243 198 156 167 211 248 254 237 225 231 292 368 450 506 524 492 417 315 242 257 405 541 661 736 779 802 821 838 860 881 916 958 1002 1031 1037 1017 978 929 867 802 745 701 664 650 647 664 674 683 681 661 626 573 511 451 366 265 137 20 -1 -1 -1 -1 -1 -1 -1 -1 -1 -1 -1 -1
-1 -1 -1 -1 -1 -1 -1 16 232 427 544 567 484 354 233 264 503 725 884 955 958 919 872 870 942 1033 1123 1172 1184 1174 1138 1109 1080 1064 1048 1051 1036 1041 1021 1019 1040 1076 1139 1201 1255 1287 1316 1327 1342 1340 1335 1304 1264 1226 1209 1239 1280 1312 1308 1266 1197 1125 1070 1058 1077 1112 1137 1158 1175 1197 1225 1261 1298 1333 1367 1404 1440 1477 1514 1546 1565 1570 1544 1479 1390 1285 1172 1055 939 827 733 654 569 471 370 262 179 103 159 198 215 179 116 78 120 194 260 307 337 341 325 291 253 227 244 279 300 294 279 268 268 333 410 494 555 574 544 471 381 327 363 510 643 754 821 862 888 912 932 957 977 1008 1040 1061 1063 1044 1001 939 855 770 701 679 685 690 698 709 718 718 705 676 630 567 488 392 281 143 29 -1 -1 -1 -1 1 -1 -1 -1 -1 -1 -1 -1 -1
-1 -1 -1 -1 -1 -1 -1 -1 146 364 560 664 673 578 439 362 451 686 878 997 1037 1018 974 926 936 1034 1140 1227 1274 1282 1274 1244 1226 1203 1195 1184 1190 1171 1170 1154 1166 1191 1236 1288 1341 1387 1410 1428 1429 1434 1424 1400 1356 1310 1273 1255 1283 1310 1314 1274 1200 1118 1062 1037 1068 1115 1170 1211 1249 1281 1310 1344 1379 1416 1452 1484 1526 1559 1584 1610 1627 1628 1599 1532 1443 1340 1229 1112 993 878 774 664 527 393 266 190 117 167 218 259 256 213 157 132 172 242 310 360 389 400 395 376 344 315 302 322 344 356 347 328 310 299 362 449 543 608 629 601 533 461 431 482 626 755 849 906 944 973 998 1019 1040 1056 1078 1092 1091 1066 1014 931 836 743 717 722 739 752 761 764 760 748 724 685 624 538 424 297 160 40 -1 -1 41 89 113 81 1 -1 -1 -1 -1 -1 -1 -1
-1 -1 -1 -1 -1 -1 -1 4 55 284 495 691 785 779 683 566 543 677 887 1038 1111 1126 1095 1048 1008 1039 1155 1262 1343 1382 1384 1376 1352 1342 1328 1329 1318 1320 1297 1297 1288 1311 1338 1385 1432 1478 1511 1526 1534 1529 1521 1491 1446 1386 1327 1286 1278 1305 1317 1284 1208 1119 1051 1042 1050 1107 1169 1240 1297 1349 1391 1427 1466 1501 1535 1570 1603 1639 1664 1678 1691 1687 1655 1587 1502 1401 1287 1165 1039 908 777 613 457 278 182 130 193 243 291 306 284 239 191 179 218 281 346 397 428 442 445 439 423 400 385 382 397 410 415 402 371 340 316 391 493 598 669 689 664 609 555 551 625 754 863 938 991 1028 1054 1077 1094 1108 1119 1125 1116 1082 1016 931 827 794 786 792 806 815 818 809 788 760 721 665 581 464 312 157 57 -1 64 135 202 227 211 143 34 -1 -1 -1 -1 -1 -1 -1
-1 -1 -1 -1 -1 -1 84 140 178 181 413 625 815 897 885 797 713 752 918 1077 1180 1220 1220 1185 1145 1121 1175 1293 1392 1461 1491 1488 1484 1466 1459 1454 1459 1447 1443 1422 1424 1423 1451 1485 1529 1571 1607 1628 1634 1631 1611 1576 1514 1439 1364 1303 1283 1305 1328 1303 1227 1131 1064 1054 1073 1089 1154 1227 1315 1389 1454 1505 1544 1584 1619 1655 1685 1715 1739 1753 1754 1746 1707 1643 1561 1457 1334 1205 1061 919 731 561 371 281 185 244 293 340 359 347 309 257 216 207 240 302 364 411 439 452 461 467 470 468 460 454 457 470 480 476 449 393 335 324 427 554 663 735 757 738 698 667 694 769 874 965 1030 1073 1106 1127 1145 1154 1161 1159 1137 1091 1023 938 903 875 868 871 870 868 857 832 792 739 675 597 493 344 197 43 22 123 210 296 338 337 283 190 58 -1 -1 -1 -1 -1 -1 -1
-1 -1 -1 -1 -1 58 220 323 334 334 301 539 745 931 1005 988 912 874 964 1114 1234 1300 1325 1321 1288 1267 1265 1332 1436 1523 1576 1598 1594 1593 1577 1577 1582 1582 1565 1563 1546 1552 1559 1593 1629 1666 1704 1725 1732 1726 1698 1643 1562 1468 1372 1303 1285 1318 1353 1336 1263 1161 1091 1096 1111 1120 1122 1199 1294 1403 1493 1565 1619 1660 1701 1736 1769 1791 1812 1823 1820 1798 1758 1694 1609 1494 1364 1211 1074 890 719 514 415 321 351 378 416 425 413 377 322 262 215 204 236 296 359 400 416 417 427 448 478 501 516 521 525 536 545 545 522 465 382 324 366 490 628 738 806 830 820 799 790 827 902 991 1061 1111 1149 1174 1188 1199 1199 1192 1162 1110 1048 1012 983 963 945 933 923 906 876 827 756 669 572 474 354 235 96 134 200 289 375 431 445 411 338 229 98 -1 -1 -1 -1 -1 -1 -1
-1 -1 -1 -1 -1 119 322 467 539 510 473 415 660 864 1040 1106 1090 1035 1030 1146 1268 1362 1410 1429 1427 1404 1405 1421 1492 1579 1649 1687 1702 1697 1697 1692 1694 1698 1697 1678 1677 1668 1681 1694 1727 1761 1793 1818 1821 1811 1775 1702 1599 1478 1362 1292 1293 1343 1390 1387 1317 1208 1126 1137 1169 1163 1145 1169 1278 1395 1514 1609 1679 1732 1774 1815 1842 1866 1882 1891 1880 1851 1804 1733 1634 1515 1362 1226 1054 907 712 584 494 489 493 506 506 486 444 382 309 238 185 173 210 273 331 362 357 341 336 381 440 501 544 570 588 600 613 614 593 545 470 406 371 442 574 710 814 877 905 905 896 903 950 1017 1088 1146 1186 1214 1231 1236 1237 1222 1192 1147 1106 1076 1052 1024 994 973 949 916 866 788 680 539 416 308 239 142 222 301 400 473 519 536 518 465 375 263 130 -1 -1 -1 -1 -1 -1 -1
-1 -1 -1 -1 -1 145 381 571 689 728 667 603 543 786 988 1152 1208 1193 1154 1174 1292 1396 1470 1514 1533 1538 1529 1546 1578 1645 1711 1763 1790 1802 1801 1807 1804 1809 1808 1804 1785 1787 1788 1804 1821 1852 1883 1898 1904 1887 1840 1757 1638 1495 1366 1302 1317 1380 1437 1443 1377 1257 1159 1170 1217 1230 1219 1214 1271 1397 1524 1642 1729 1796 1845 1884 1914 1935 1949 1951 1933 1896 1841 1755 1648 1508 1386 1231 1089 925 796 694 649 626 612 587 551 500 435 350 263 185 143 128 173 231 285 302 291 255 264 305 392 475 548 598 631 657 672 680 669 635 585 524 482 464 539 668 794 888 947 976 981 985 1008 1058 1120 1176 1221 1249 1267 1272 1268 1254 1226 1191 1157 1124 1091 1047 1010 971 933 886 817 714 563 411 237 213 170 281 373 485 566 614 626 611 568 495 397 274 135 -1 -1 -1 -1 -1 -1 -1
-1 -1 -1 -1 -1 137 395 624 794 884 891 812 743 698 934 1118 1261 1304 1287 1269 1311 1417 1507 1573 1615 1637 1650 1655 1686 1722 1778 1830 1867 1890 1903 1905 1911 1910 1916 1910 1899 1887 1895 1903 1922 1938 1961 1977 1973 1953 1900 1811 1688 1546 1417 1334 1350 1415 1485 1496 1430 1306 1187 1192 1248 1304 1316 1322 1337 1413 1546 1667 1770 1848 1907 1947 1977 1998 2008 2002 1975 1934 1864 1775 1651 1539 1410 1285 1144 1011 897 825 772 728 673 606 531 458 381 301 208 159 126 126 130 184 221 238 226 270 292 307 357 449 534 603 656 694 724 738 741 725 694 658 614 589 584 653 767 878 961 1012 1040 1054 1072 1106 1155 1207 1250 1280 1296 1302 1298 1282 1255 1225 1188 1148 1098 1044 978 916 859 797 716 593 461 293 281 226 337 439 551 630 684 705 696 656 591 499 380 243 97 -1 -1 -1 -1 -1 -1 -1
-1 -1 -1 -1 -1 89 368 632 845 991 1054 1039 956 902 872 1082 1241 1360 1394 1390 1389 1439 1533 1612 1670 1712 1739 1762 1777 1813 1852 1897 1938 1967 1988 2001 2001 2007 2004 2007 2000 1991 1988 1997 2009 2024 2037 2046 2039 2011 1954 1864 1747 1618 1492 1397 1374 1450 1526 1536 1461 1333 1236 1199 1292 1368 1418 1435 1457 1495 1585 1705 1809 1893 1958 2004 2033 2054 2058 2045 2013 1964 1891 1793 1690 1584 1472 1348 1223 1105 1001 927 857 778 682 560 445 366 316 250 239 204 171 138 137 140 183 186 246 294 346 363 372 433 510 590 656 712 755 785 799 802 791 771 750 724 709 712 772 867 960 1028 1075 1101 1123 1151 1190 1234 1274 1301 1320 1326 1322 1305 1279 1245 1205 1153 1094 1015 922 823 737 653 561 477 360 403 404 456 515 613 686 737 761 758 728 672 586 468 326 169 12 -1 -1 -1 -1 -1 -1 -1
-1 -1 -1 -1 -1 16 311 596 847 1036 1155 1202 1179 1104 1062 1042 1226 1360 1457 1494 1499 1508 1562 1641 1712 1763 1809 1841 1868 1894 1928 1964 2002 2034 2061 2075 2085 2085 2089 2087 2089 2083 2077 2076 2086 2097 2105 2107 2096 2060 2000 1912 1808 1694 1571 1461 1414 1486 1565 1557 1457 1333 1233 1283 1342 1447 1514 1552 1579 1615 1665 1757 1848 1933 2000 2050 2082 2098 2097 2078 2043 1988 1915 1828 1736 1642 1532 1418 1301 1188 1085 991 890 773 630 491 356 309 288 308 298 277 223 180 152 178 185 234 252 320 365 396 410 424 490 562 639 708 767 811 843 860 866 862 854 844 832 823 832 884 959 1036 1092 1132 1160 1186 1220 1253 1289 1318 1336 1342 1338 1322 1295 1259 1213 1157 1081 987 868 746 628 527 452 397 490 538 598 639 690 734 775 795 795 773 727 654 549 410 240 58 -1 -1 -1 -1 -1 -1 -1 -1
-1 -1 -1 -1 -1 -1 232 535 807 1030 1196 1295 1333 1312 1249 1210 1204 1358 1477 1557 1592 1605 1628 1681 1745 1807 1860 1905 1939 1967 1993 2027 2060 2093 2117 2137 2147 2153 2156 2160 2160 2157 2152 2148 2148 2157 2163 2159 2139 2098 2028 1949 1854 1750 1631 1511 1458 1532 1603 1559 1423 1273 1286 1354 1457 1536 1613 1661 1694 1730 1772 1821 1898 1972 2036 2087 2119 2131 2124 2101 2059 2007 1938 1859 1772 1680 1581 1474 1362 1249 1132 1008 871 710 561 417 406 387 390 390 377 334 271 208 215 240 281 302 326 325 364 391 415 440 468 537 613 690 761 820 866 900 918 927 931 933 932 925 922 937 984 1040 1100 1146 1182 1210 1238 1271 1298 1326 1344 1351 1346 1331 1305 1268 1220 1158 1081 976 857 739 664 580 492 558 624 697 738 767 790 806 811 806 786 749 689 601 481 323 130 -1 -1 -1 -1 -1 -1 -1 -1 -1
-1 -1 -1 -1 -1 -1 166 456 735 986 1184 1332 1418 1454 1435 1381 1342 1353 1484 1587 1653 1693 1715 1745 1790 1848 1903 1953 1994 2025 2054 2078 2108 2137 2163 2183 2197 2206 2212 2215 2216 2213 2210 2207 2206 2207 2208 2198 2171 2120 2054 1969 1875 1769 1644 1547 1509 1602 1643 1563 1374 1268 1319 1451 1558 1646 1706 1760 1799 1833 1869 1908 1956 2018 2073 2116 2145 2152 2140 2110 2070 2015 1946 1867 1780 1692 1599 1498 1388 1268 1131 976 793 632 480 497 504 513 504 477 435 375 303 258 272 322 368 401 402 390 364 376 402 437 479 524 593 671 745 813 873 918 950 971 986 996 1002 1004 1000 1008 1028 1065 1105 1153 1190 1223 1253 1282 1309 1330 1347 1354 1349 1333 1307 1272 1223 1164 1093 1005 909 835 776 721 705 720 769 803 825 832 830 819 800 772 734 682 610 513 380 207 27 -1 -1 -1 -1 -1 -1 -1 -1 -1
-1 -1 -1 -1 -1 -1 128 398 674 916 1147 1320 1455 1532 1562 1542 1494 1462 1495 1605 1691 1753 1795 1820 1848 1891 1944 1993 2037 2073 2100 2125 2146 2171 2194 2214 2229 2240 2247 2252 2253 2251 2250 2250 2249 2249 2244 2229 2195 2147 2077 1984 1873 1734 1625 1541 1616 1686 1697 1579 1399 1299 1381 1523 1655 1740 1803 1849 1890 1925 1957 1989 2023 2065 2111 2145 2162 2164 2144 2108 2059 2000 1926 1840 1747 1658 1567 1472 1362 1228 1072 883 710 543 570 592 618 613 581 533 470 402 342 310 331 382 440 479 487 457 409 372 383 432 486 539 595 659 731 800 865 920 963 995 1019 1036 1048 1054 1057 1061 1073 1094 1123 1153 1192 1227 1260 1288 1312 1331 1346 1350 1345 1328 1301 1265 1219 1165 1104 1041 979 929 890 864 851 854 860 864 860 847 824 791 750 700 637 562 480 385 246 100 -1 -1 -1 -1 -1 -1 -1 -1 -1 -1
-1 -1 -1 -1 -1 -1 144 392 640 887 1089 1295 1452 1569 1634 1653 1629 1592 1580 1630 1722 1793 1849 1889 1915 1940 1982 2030 2073 2108 2136 2156 2175 2191 2211 2230 2245 2255 2262 2265 2266 2267 2269 2272 2274 2276 2272 2255 2224 2175 2106 2005 1854 1703 1574 1619 1696 1772 1758 1638 1474 1401 1464 1608 1738 1830 1891 1935 1966 2001 2031 2060 2087 2113 2143 2167 2175 2165 2136 2089 2026 1953 1868 1769 1664 1563 1471 1381 1272 1137 957 786 609 644 671 705 704 677 629 564 496 428 377 359 377 428 490 540 554 525 455 387 371 416 487 554 612 668 731 794 855 912 961 999 1031 1053 1069 1078 1082 1085 1091 1108 1129 1160 1189 1225 1255 1284 1306 1324 1335 1339 1334 1318 1290 1250 1202 1149 1095 1048 1009 978 955 940 928 915 899 878 854 827 794 746 685 610 511 404 311 218 134 13 22 -1 -1 -1 -1 -1 -1 -1 -1 -1
-1 -1 -1 -1 -1 -1 176 416 661 877 1089 1265 1440 1576 1673 1720 1728 1710 1692 1704 1754 1827 1889 1936 1973 2000 2026 2063 2104 2134 2154 2171 2183 2195 2210 2225 2240 2249 2252 2254 2254 2258 2262 2270 2279 2286 2287 2277 2252 2208 2140 2026 1873 1696 1643 1686 1787 1844 1825 1720 1595 1547 1598 1702 1819 1911 1970 2009 2040 2063 2093 2119 2139 2157 2169 2178 2174 2153 2113 2053 1976 1882 1777 1652 1525 1403 1306 1226 1139 997 855 681 712 743 782 783 758 712 651 584 513 448 400 380 400 453 521 579 605 580 504 416 373 401 470 551 621 683 741 800 851 903 951 994 1028 1052 1067 1072 1072 1070 1075 1089 1121 1154 1186 1214 1243 1269 1290 1306 1318 1323 1320 1304 1274 1231 1170 1107 1051 1008 982 964 957 953 945 924 891 856 821 788 757 713 640 541 418 294 193 122 75 119 125 116 55 -1 -1 -1 -1 -1 -1 -1
-1 -1 -1 -1 -1 -1 170 435 678 912 1108 1281 1432 1577 1684 1758 1795 1802 1799 1796 1816 1863 1921 1976 2014 2047 2072 2098 2126 2146 2156 2161 2168 2177 2191 2205 2217 2222 2222 2217 2218 2222 2229 2243 2262 2279 2290 2289 2273 2239 2174 2073 1930 1798 1756 1803 1869 1916 1899 1819 1736 1713 1741 1814 1905 1984 2041 2076 2100 2124 2144 2163 2178 2183 2181 2171 2154 2124 2079 2011 1922 1812 1679 1534 1380 1230 1114 1053 972 884 753 793 810 849 851 824 773 714 650 583 516 451 392 364 386 451 531 601 639 628 561 469 410 399 450 523 607 680 744 800 854 899 944 985 1017 1035 1040 1037 1026 1023 1028 1063 1105 1144 1172 1200 1223 1244 1262 1278 1293 1302 1302 1289 1259 1210 1141 1056 979 935 906 898 906 918 920 899 859 812 774 746 725 696 641 553 447 351 278 225 223 237 243 198 113 -1 -1 -1 -1 -1 -1 -1
-1 -1 -1 -1 -1 -1 130 399 681 925 1134 1301 1449 1574 1691 1775 1837 1869 1877 1885 1889 1914 1958 2004 2050 2082 2108 2127 2139 2141 2134 2127 2127 2139 2153 2167 2175 2176 2168 2162 2157 2163 2174 2196 2226 2258 2280 2292 2289 2265 2216 2130 2021 1929 1894 1919 1967 1993 1983 1935 1889 1866 1884 1927 1990 2055 2102 2135 2157 2174 2188 2198 2198 2186 2163 2135 2104 2071 2024 1961 1876 1764 1633 1483 1321 1166 1040 943 871 814 860 882 915 908 875 817 744 674 611 551 489 422 356 316 349 430 521 604 661 669 626 551 488 450 438 493 564 647 721 787 840 891 934 970 994 1002 995 976 962 954 993 1044 1091 1126 1155 1173 1190 1204 1217 1235 1258 1278 1286 1274 1244 1194 1123 1037 945 872 827 817 833 857 870 856 816 764 724 707 702 697 668 612 545 483 432 394 371 354 311 234 116 -1 -1 -1 -1 -1 -1 -1
-1 -1 -1 -1 -1 -1 42 340 629 901 1126 1313 1461 1590 1695 1790 1861 1910 1937 1949 1959 1969 1997 2036 2076 2111 2135 2145 2140 2117 2087 2066 2068 2079 2101 2116 2118 2113 2102 2090 2078 2084 2108 2140 2186 2228 2261 2284 2294 2285 2252 2191 2117 2054 2024 2032 2059 2078 2075 2052 2023 2006 2013 2038 2078 2120 2159 2186 2204 2217 2223 2220 2201 2162 2107 2054 2009 1969 1934 1887 1825 1740 1633 1502 1355 1218 1094 994 929 915 934 960 954 919 850 758 665 583 528 481 429 364 302 267 317 407 506 600 671 705 690 644 591 533 492 464 515 580 662 737 803 858 905 935 952 952 934 903 882 920 981 1038 1079 1107 1123 1134 1138 1144 1151 1182 1221 1254 1268 1261 1234 1188 1128 1053 970 892 830 784 773 799 809 801 768 723 684 674 692 703 699 673 633 593 555 514 468 412 329 212 67 -1 -1 -1 -1 -1 -1 -1
-1 -1 -1 -1 -1 -1 -1 245 560 840 1093 1294 1464 1598 1708 1801 1877 1936 1974 1999 2013 2026 2040 2067 2102 2133 2153 2154 2130 2080 2019 1986 1986 2015 2040 2050 2053 2041 2025 2005 1995 2001 2046 2102 2153 2200 2236 2265 2283 2289 2275 2242 2200 2158 2132 2131 2142 2157 2161 2151 2133 2121 2122 2137 2157 2184 2210 2230 2244 2252 2249 2232 2191 2121 2018 1922 1849 1804 1775 1768 1735 1689 1614 1506 1380 1248 1129 1037 980 956 953 948 924 866 771 649 529 454 412 386 349 298 240 251 309 401 502 601 681 735 751 733 690 637 568 509 470 506 571 650 726 790 839 872 882 881 858 841 838 916 984 1032 1061 1076 1079 1074 1067 1060 1079 1133 1193 1234 1254 1250 1224 1185 1134 1074 1012 945 879 830 795 755 756 741 717 684 656 665 684 712 723 718 697 665 626 575 505 412 291 142 -1 -1 -1 -1 -1 -1 -1 -1
-1 -1 -1 -1 -1 -1 -1 170 464 775 1033 1264 1444 1590 1714 1811 1889 1951 1999 2032 2055 2071 2085 2105 2128 2153 2166 2155 2118 2048 1957 1900 1907 1941 1970 1985 1978 1965 1937 1916 1909 1957 2015 2072 2121 2159 2192 2222 2250 2271 2281 2276 2258 2237 2218 2213 2216 2225 2232 2230 2218 2210 2210 2217 2227 2243 2256 2270 2278 2279 2267 2237 2182 2080 1941 1781 1651 1571 1560 1556 1577 1569 1525 1436 1304 1164 1040 947 893 867 854 843 817 759 646 513 388 308 304 287 269 237 213 256 332 423 523 618 702 763 797 801 779 731 669 583 517 480 494 560 620 683 731 763 784 782 785 781 861 924 981 1015 1029 1028 1019 999 979 977 1029 1107 1175 1222 1241 1236 1209 1169 1122 1076 1030 983 934 887 834 784 729 705 682 660 659 666 694 719 742 748 737 705 657 587 491 365 212 41 -1 -1 -1 -1 -1 -1 -1 -1
-1 -1 -1 -1 -1 -1 -1 115 418 694 977 1211 1410 1573 1706 1812 1896 1962 2014 2054 2084 2106 2123 2140 2157 2173 2176 2157 2108 2031 1940 1855 1846 1872 1906 1909 1907 1880 1856 1836 1873 1935 1992 2037 2069 2093 2121 2152 2187 2227 2262 2282 2288 2286 2282 2276 2276 2282 2288 2289 2286 2279 2278 2281 2285 2290 2298 2303 2306 2298 2279 2242 2176 2066 1915 1750 1550 1388 1303 1320 1340 1368 1359 1279 1123 957 821 742 697 669 659 660 659 614 524 384 308 269 224 222 206 191 222 283 371 464 561 653 737 799 838 855 848 822 765 693 622 565 526 503 534 567 608 637 654 692 715 813 878 935 966 981 983 971 947 924 902 941 1020 1106 1170 1215 1230 1218 1183 1133 1082 1040 1008 983 955 917 871 815 763 722 692 676 666 696 719 742 761 771 761 724 659 565 440 286 109 -1 -1 -1 -1 -1 -1 -1 -1 -1
-1 -1 -1 -1 -1 -1 -1 149 401 682 925 1165 1368 1545 1688 1808 1896 1968 2024 2068 2103 2130 2150 2166 2180 2188 2184 2160 2112 2038 1952 1873 1813 1827 1832 1844 1827 1805 1783 1811 1862 1911 1946 1970 1988 2002 2020 2050 2097 2154 2210 2257 2291 2311 2321 2324 2323 2327 2333 2336 2334 2331 2327 2327 2327 2329 2329 2329 2323 2311 2284 2245 2177 2087 1964 1803 1610 1403 1244 1167 1134 1161 1143 1059 942 736 643 587 553 533 515 500 521 489 410 395 340 280 236 191 185 203 248 321 411 511 608 702 780 841 880 899 907 892 860 809 751 689 627 575 525 526 544 566 599 650 761 839 896 923 932 938 929 909 887 868 896 953 1036 1112 1175 1211 1221 1204 1158 1098 1027 969 948 939 933 912 876 831 784 740 710 683 709 733 757 776 789 790 773 724 638 514 361 180 18 -1 -1 -1 -1 -1 -1 -1 -1 -1
-1 -1 -1 -1 -1 -1 13 236 479 708 940 1148 1350 1526 1678 1794 1893 1965 2027 2074 2112 2141 2164 2180 2192 2196 2190 2166 2124 2061 1982 1899 1836 1786 1792 1776 1763 1737 1755 1796 1841 1866 1877 1876 1890 1899 1907 1937 1990 2057 2133 2211 2273 2316 2339 2350 2355 2360 2364 2366 2365 2362 2357 2354 2352 2350 2347 2342 2333 2315 2288 2248 2198 2125 2029 1900 1741 1569 1406 1292 1197 1056 968 953 808 800 738 693 664 639 605 557 471 435 455 425 375 310 244 244 242 248 293 364 455 556 659 749 826 882 921 943 951 953 936 907 862 809 752 693 649 625 634 656 688 745 808 868 892 892 891 884 874 859 846 875 925 994 1059 1126 1176 1207 1214 1195 1151 1078 995 910 858 862 868 868 846 810 768 731 699 718 736 770 797 813 820 810 775 707 593 441 255 88 -1 -1 -1 -1 -1 -1 -1 -1 -1 -1
-1 -1 -1 -1 -1 -1 141 363 590 806 1003 1192 1369 1533 1670 1790 1883 1964 2021 2073 2109 2140 2162 2179 2189 2195 2190 2172 2135 2080 2012 1936 1860 1801 1754 1751 1726 1723 1735 1772 1799 1815 1809 1819 1831 1841 1854 1873 1914 1984 2075 2171 2250 2308 2343 2362 2372 2377 2378 2376 2372 2369 2366 2362 2359 2354 2349 2341 2330 2313 2288 2256 2214 2159 2086 1990 1881 1755 1638 1517 1379 1234 1101 951 992 978 961 917 880 840 785 695 604 539 496 448 383 310 319 325 325 328 348 410 497 599 698 788 862 918 956 978 992 996 994 976 945 906 865 821 789 774 777 789 813 838 864 877 872 853 842 836 831 827 855 903 965 1025 1084 1131 1173 1199 1208 1193 1153 1088 1002 904 816 781 799 795 787 771 732 709 719 731 765 797 827 845 845 819 763 666 526 339 169 6 14 5 -1 -1 -1 -1 -1 -1 -1 -1
-1 -1 -1 -1 -1 27 255 488 705 910 1091 1257 1416 1561 1686 1789 1882 1957 2020 2063 2100 2126 2147 2162 2175 2185 2184 2170 2141 2095 2035 1964 1888 1816 1768 1738 1750 1758 1763 1763 1775 1791 1825 1854 1876 1898 1907 1925 1948 2000 2078 2161 2238 2299 2340 2364 2375 2376 2372 2363 2355 2348 2347 2344 2342 2339 2332 2323 2314 2299 2281 2255 2221 2179 2121 2054 1976 1895 1807 1707 1592 1466 1324 1238 1195 1196 1160 1113 1060 1002 921 817 704 605 515 446 372 392 407 421 413 401 410 449 527 620 721 809 883 938 979 1004 1020 1028 1029 1022 1003 975 946 919 897 889 888 892 896 897 889 871 844 818 802 802 809 840 881 934 991 1043 1088 1129 1162 1187 1199 1192 1162 1109 1034 938 843 790 756 751 748 747 760 745 719 742 779 821 853 868 858 813 728 603 431 261 86 110 109 92 15 -1 -1 -1 -1 -1 -1 -1
-1 -1 -1 -1 -1 68 321 570 795 998 1177 1333 1472 1601 1712 1808 1889 1959 2012 2052 2078 2099 2114 2131 2148 2163 2169 2161 2136 2098 2045 1980 1905 1837 1779 1778 1798 1815 1819 1817 1826 1847 1887 1930 1969 1995 2013 2027 2054 2085 2133 2193 2250 2299 2340 2362 2367 2359 2340 2321 2302 2298 2294 2300 2304 2305 2298 2291 2283 2274 2260 2240 2215 2178 2133 2077 2020 1961 1897 1823 1740 1643 1543 1454 1398 1352 1303 1239 1166 1082 974 845 700 572 488 426 470 491 510 507 483 455 440 464 522 611 708 803 880 940 984 1015 1035 1046 1049 1045 1033 1016 996 978 963 953 950 945 936 918 890 855 818 796 785 793 825 866 914 959 1000 1038 1073 1109 1140 1169 1188 1189 1171 1131 1069 986 907 849 813 796 799 807 806 791 759 743 791 845 877 884 857 786 670 512 353 176 206 212 210 142 20 -1 -1 -1 -1 -1 -1 -1
-1 -1 -1 -1 -1 69 344 605 852 1063 1244 1398 1533 1644 1747 1831 1905 1962 2004 2028 2042 2050 2066 2086 2114 2136 2145 2138 2119 2087 2043 1986 1921 1853 1831 1832 1859 1883 1890 1898 1907 1933 1965 2012 2056 2089 2112 2134 2156 2181 2212 2249 2282 2315 2345 2360 2355 2329 2289 2240 2213 2194 2205 2220 2242 2249 2250 2243 2240 2234 2226 2214 2194 2162 2118 2064 2009 1959 1913 1864 1809 1743 1667 1586 1513 1444 1370 1288 1193 1075 944 785 640 500 468 526 562 593 593 566 521 466 426 423 472 557 661 756 844 915 969 1008 1035 1049 1055 1050 1040 1028 1015 1002 989 979 969 958 940 914 879 839 809 788 793 813 851 894 934 966 988 1011 1041 1079 1118 1152 1176 1184 1175 1149 1101 1040 977 929 900 886 884 880 866 830 792 773 821 871 900 891 842 743 591 445 277 306 319 326 270 160 7 -1 -1 -1 -1 -1 -1 -1
-1 -1 -1 -1 -1 63 352 627 880 1105 1293 1447 1577 1687 1778 1856 1914 1957 1980 1985 1982 1985 2001 2041 2078 2104 2113 2105 2087 2060 2027 1987 1937 1900 1888 1901 1922 1949 1967 1976 1989 2009 2042 2082 2126 2162 2189 2213 2234 2257 2280 2299 2320 2338 2353 2356 2341 2297 2228 2142 2068 2045 2055 2110 2153 2177 2182 2183 2181 2180 2182 2177 2162 2135 2090 2027 1960 1904 1862 1834 1808 1766 1706 1631 1546 1452 1355 1253 1137 1001 839 702 558 559 579 617 650 651 629 583 512 429 350 325 365 461 570 678 779 864 935 989 1024 1042 1046 1037 1024 1010 1004 996 986 971 958 942 923 896 864 833 807 802 813 841 876 913 938 947 957 971 1009 1058 1102 1137 1162 1173 1172 1157 1128 1087 1042 1006 983 971 959 941 905 860 817 837 867 905 917 891 817 684 543 389 419 428 442 400 308 169 6 -1 -1 -1 -1 -1 -1 -1
-1 -1 -1 -1 -1 97 369 649 901 1126 1320 1478 1609 1715 1803 1866 1912 1933 1933 1917 1906 1905 1950 2003 2046 2069 2070 2057 2038 2015 1997 1980 1963 1950 1954 1967 1988 2014 2037 2050 2061 2079 2103 2139 2180 2214 2242 2265 2286 2304 2322 2334 2344 2350 2353 2346 2326 2282 2201 2072 1931 1847 1886 1966 2033 2076 2098 2103 2107 2115 2124 2130 2125 2103 2062 1999 1912 1829 1768 1747 1735 1717 1673 1601 1498 1376 1250 1132 1016 875 741 610 637 655 681 685 674 646 603 542 459 349 247 197 249 351 470 596 713 813 900 966 1008 1030 1031 1011 986 971 967 965 959 944 926 908 891 872 848 827 816 818 836 861 891 913 917 913 912 947 1000 1050 1091 1122 1143 1153 1156 1151 1137 1115 1090 1067 1048 1033 1015 981 935 878 877 896 926 941 934 886 785 664 518 535 541 556 520 447 336 196 42 -1 -1 -1 -1 -1 -1 -1
-1 -1 -1 -1 -1 158 428 692 937 1151 1334 1497 1626 1733 1810 1865 1889 1886 1860 1834 1817 1861 1921 1980 2014 2023 2016 1995 1968 1955 1954 1970 1983 1998 2011 2029 2048 2072 2094 2111 2123 2137 2156 2184 2216 2246 2271 2292 2311 2327 2340 2349 2351 2345 2337 2324 2306 2269 2198 2082 1916 1727 1733 1792 1880 1946 1983 2003 2017 2034 2056 2073 2081 2072 2043 1985 1903 1804 1695 1620 1605 1592 1568 1499 1387 1227 1070 947 854 770 662 695 718 738 717 672 616 559 502 443 365 255 143 131 198 312 436 556 676 785 878 948 999 1022 1014 980 934 912 908 916 916 906 885 866 850 836 824 815 818 831 849 872 888 895 883 867 892 950 1003 1047 1078 1098 1113 1121 1126 1127 1124 1115 1105 1097 1087 1076 1053 1014 954 932 938 958 977 977 947 877 785 661 654 647 658 629 568 478 364 231 83 -1 -1 -1 -1 -1 -1 -1
-1 -1 -1 -1 -1 237 506 756 987 1187 1365 1510 1640 1736 1806 1843 1845 1813 1764 1731 1776 1843 1910 1954 1970 1966 1943 1909 1888 1879 1914 1958 1997 2030 2055 2077 2096 2118 2139 2156 2168 2179 2196 2214 2236 2258 2278 2295 2311 2327 2339 2345 2342 2327 2305 2289 2273 2249 2199 2111 1965 1799 1598 1629 1689 1773 1834 1876 1907 1944 1979 2004 2027 2036 2027 1988 1918 1814 1682 1531 1432 1416 1389 1337 1220 1073 897 818 764 720 756 772 788 756 677 573 478 398 335 296 246 168 92 114 207 328 455 572 684 789 878 949 997 1016 1003 956 889 840 840 850 863 861 847 824 808 798 792 794 808 828 848 863 869 864 851 851 907 964 1010 1036 1052 1060 1069 1076 1083 1087 1083 1082 1084 1091 1097 1097 1082 1044 1006 991 1001 1015 1021 1006 959 889 792 769 752 751 722 665 586 489 373 244 101 -1 -1 -1 -1 -1 -1 -1
-1 -1 -1 -1 13 297 571 820 1038 1232 1395 1536 1644 1730 1781 1796 1772 1712 1645 1661 1743 1835 1890 1913 1911 1887 1847 1808 1786 1825 1888 1955 2008 2050 2082 2108 2128 2148 2165 2180 2191 2201 2211 2222 2234 2249 2262 2277 2293 2309 2322 2327 2322 2300 2264 2238 2225 2210 2182 2127 2030 1871 1694 1481 1514 1564 1644 1711 1787 1844 1887 1928 1962 1995 2007 1989 1934 1841 1702 1531 1344 1226 1194 1143 1072 944 930 890 856 841 828 821 787 712 607 453 353 266 194 144 134 95 65 128 239 358 488 613 720 815 896 960 1002 1015 997 944 875 804 773 790 804 815 811 796 775 766 763 771 790 809 827 835 836 831 830 875 926 974 1004 1013 1010 1009 1013 1020 1027 1024 1020 1018 1030 1052 1081 1103 1103 1084 1058 1053 1057 1062 1059 1034 983 909 871 851 837 804 748 670 571 460 341 208 65 -1 -1 -1 -1 -1 -1 -1
-1 -1 -1 -1 59 342 618 867 1088 1270 1424 1548 1642 1704 1729 1713 1657 1584 1542 1604 1728 1812 1853 1852 1826 1781 1730 1691 1711 1800 1886 1957 2017 2062 2094 2117 2136 2152 2166 2178 2186 2192 2194 2198 2207 2215 2226 2241 2261 2280 2294 2300 2295 2271 2226 2180 2159 2147 2138 2110 2053 1948 1774 1585 1361 1383 1421 1533 1647 1734 1787 1841 1898 1948 1978 1978 1943 1866 1746 1582 1385 1194 1089 1036 1000 1043 1040 1038 1000 943 871 797 725 654 536 486 397 302 202 113 47 29 65 150 259 390 515 643 757 848 922 977 1010 1017 994 947 881 812 770 741 756 767 780 777 767 752 746 753 766 782 794 800 801 808 851 895 940 972 982 973 958 948 953 959 958 948 938 944 960 1004 1058 1100 1120 1118 1112 1103 1104 1103 1094 1065 1016 965 938 916 884 827 751 650 526 396 256 115 -1 -1 -1 -1 -1 -1 -1 -1
-1 -1 -1 -1 66 364 640 895 1109 1291 1434 1541 1615 1648 1635 1580 1503 1439 1460 1600 1711 1779 1791 1761 1708 1645 1598 1598 1703 1802 1891 1963 2019 2059 2084 2103 2117 2130 2139 2145 2151 2150 2145 2143 2149 2155 2171 2195 2220 2240 2255 2261 2260 2238 2194 2129 2077 2064 2055 2055 2031 1969 1853 1660 1454 1229 1254 1361 1515 1619 1691 1755 1822 1890 1938 1956 1939 1885 1792 1657 1489 1334 1223 1167 1160 1171 1182 1148 1079 974 863 743 677 619 613 572 511 407 282 151 59 14 69 162 282 401 538 660 778 873 943 993 1020 1020 997 952 891 837 781 741 715 731 746 763 766 761 753 749 753 759 771 773 788 826 865 908 940 955 949 924 898 891 892 894 889 880 875 890 929 985 1046 1098 1133 1149 1151 1148 1142 1138 1124 1096 1056 1018 990 959 905 840 748 628 490 323 154 -1 -1 -1 -1 -1 -1 -1 -1 -1
-1 -1 -1 -1 34 336 628 882 1106 1282 1412 1503 1550 1543 1489 1397 1325 1315 1472 1597 1690 1721 1696 1636 1553 1499 1481 1610 1723 1825 1904 1964 2007 2036 2052 2063 2072 2078 2082 2087 2086 2078 2061 2060 2059 2078 2102 2141 2172 2193 2204 2215 2216 2198 2159 2096 2013 1953 1946 1950 1962 1943 1873 1734 1512 1287 1131 1246 1408 1526 1596 1658 1737 1823 1889 1923 1924 1892 1826 1727 1608 1498 1415 1357 1326 1299 1259 1190 1079 959 829 781 736 723 703 666 589 476 329 201 80 26 74 181 293 421 544 675 782 882 957 1005 1028 1025 998 949 900 844 791 743 712 695 719 746 769 776 771 768 767 768 767 785 809 842 877 906 926 929 913 878 843 836 842 842 835 846 880 915 949 1003 1058 1106 1146 1170 1182 1181 1176 1167 1154 1125 1091 1061 1028 983 926 852 758 637 478 302 110 -1 -1 -1 -1 -1 -1 -1 -1 -1
-1 -1 -1 -1 -1 268 567 837 1061 1235 1357 1420 1429 1384 1283 1197 1159 1340 1481 1592 1637 1618 1559 1460 1387 1348 1504 1634 1757 1845 1907 1949 1976 1991 1996 1997 1998 2002 2002 2005 1995 1970 1953 1937 1956 1979 2039 2088 2120 2134 2148 2158 2160 2150 2120 2064 1978 1871 1803 1814 1850 1876 1850 1749 1562 1304 1115 1172 1347 1460 1507 1565 1647 1748 1832 1883 1900 1886 1843 1775 1694 1615 1542 1481 1421 1355 1266 1157 1047 924 900 868 851 830 790 721 621 485 350 203 85 24 87 193 315 436 562 677 793 885 962 1010 1032 1024 991 947 891 835 783 739 701 684 704 746 777 796 800 796 793 790 795 807 826 848 871 889 898 896 881 846 809 800 802 806 834 871 917 962 1006 1046 1088 1128 1162 1190 1204 1208 1202 1194 1178 1151 1123 1093 1055 1005 945 870 772 655 510 340 150 -1 -1 -1 -1 -1 -1 -1 -1 -1
-1 -1 -1 -1 -1 150 459 742 973 1144 1247 1282 1254 1162 1073 1007 1194 1357 1492 1546 1530 1469 1356 1273 1205 1378 1529 1673 1772 1840 1883 1908 1918 1922 1919 1909 1909 1900 1909 1901 1869 1837 1799 1811 1827 1916 1986 2034 2058 2072 2081 2087 2093 2090 2074 2033 1951 1839 1709 1665 1722 1780 1792 1729 1567 1314 1114 1164 1300 1395 1444 1478 1564 1675 1774 1837 1867 1869 1842 1796 1737 1672 1602 1529 1453 1349 1224 1108 1006 995 986 976 947 905 841 749 619 481 318 178 57 32 92 200 324 455 575 695 799 893 964 1013 1032 1021 986 932 870 808 758 722 698 683 709 757 798 820 827 824 817 812 811 815 824 836 849 859 865 865 856 831 803 779 782 811 853 905 956 1006 1051 1088 1120 1152 1180 1204 1220 1225 1223 1214 1195 1171 1142 1108 1065 1014 953 878 787 674 542 380 186 -1 -1 -1 -1 -1 -1 -1 -1 -1
-1 -1 -1 -1 -1 -1 291 583 815 978 1068 1083 1017 946 869 1055 1232 1387 1452 1442 1376 1249 1158 1061 1241 1418 1581 1691 1763 1804 1826 1836 1838 1830 1817 1812 1791 1800 1787 1760 1717 1655 1655 1659 1781 1873 1939 1972 1987 1995 1996 2009 2015 2021 2016 1989 1923 1809 1667 1559 1591 1667 1708 1676 1552 1339 1125 1154 1267 1374 1387 1404 1487 1605 1710 1785 1829 1842 1830 1796 1748 1689 1620 1544 1453 1339 1218 1109 1082 1076 1077 1053 1007 941 859 751 626 454 274 126 90 96 100 195 320 456 588 707 812 901 971 1014 1031 1015 971 908 837 773 720 708 693 692 726 776 820 845 852 845 833 819 809 805 804 809 815 823 832 841 840 827 803 794 788 818 865 920 977 1026 1069 1104 1133 1162 1189 1212 1230 1238 1237 1226 1208 1177 1140 1097 1048 993 934 865 779 670 534 372 171 -1 -1 -1 -1 -1 -1 -1 -1 -1
-1 -1 -1 -1 -1 -1 82 345 569 719 805 815 794 742 934 1113 1280 1360 1355 1284 1150 1043 929 1118 1299 1478 1601 1677 1718 1737 1742 1743 1736 1718 1708 1682 1685 1660 1638 1587 1514 1492 1478 1630 1745 1834 1879 1892 1900 1895 1906 1909 1929 1943 1949 1933 1878 1768 1608 1465 1465 1539 1602 1602 1512 1346 1181 1105 1250 1360 1374 1336 1407 1518 1642 1732 1786 1809 1805 1783 1743 1691 1629 1550 1461 1376 1283 1218 1180 1161 1139 1097 1028 941 844 748 620 444 244 153 186 197 201 189 300 432 575 703 814 905 974 1017 1027 1005 953 881 809 740 709 686 697 702 751 803 844 868 871 857 835 813 798 787 785 784 786 796 809 824 836 833 827 820 821 820 862 913 968 1017 1054 1084 1114 1145 1177 1207 1230 1245 1245 1234 1210 1171 1117 1055 989 926 866 800 717 611 475 295 114 -1 -1 -1 -1 -1 -1 -1 -1 -1
-1 -1 -1 -1 -1 -1 -1 108 270 395 485 570 602 842 1017 1183 1267 1269 1195 1051 929 805 992 1176 1368 1498 1580 1624 1640 1640 1640 1634 1616 1605 1572 1570 1533 1509 1451 1368 1325 1293 1459 1600 1717 1777 1793 1801 1791 1795 1791 1813 1826 1855 1870 1865 1819 1714 1535 1357 1326 1401 1485 1502 1435 1295 1170 1114 1256 1359 1342 1302 1291 1435 1570 1674 1736 1765 1771 1758 1730 1691 1638 1574 1502 1439 1379 1320 1269 1225 1176 1106 1017 904 800 700 590 423 262 271 317 341 319 305 272 392 524 671 794 900 974 1016 1021 991 933 861 782 737 704 710 696 726 769 828 868 887 881 859 829 806 789 791 789 786 785 788 800 821 839 853 857 859 853 850 846 889 935 974 1001 1025 1058 1102 1148 1191 1227 1246 1249 1235 1205 1157 1088 1002 910 822 756 672 576 483 349 205 16 -1 -1 -1 -1 -1 -1 -1 -1 -1
-1 -1 -1 -1 -1 -1 -1 -1 95 195 300 441 727 936 1109 1189 1190 1111 958 815 678 852 1041 1245 1385 1473 1519 1533 1531 1522 1517 1505 1502 1469 1458 1412 1384 1313 1228 1166 1120 1289 1439 1582 1661 1687 1693 1682 1682 1669 1686 1691 1726 1753 1781 1783 1749 1646 1467 1261 1186 1271 1367 1384 1305 1202 1100 1203 1301 1357 1312 1200 1240 1344 1502 1615 1681 1715 1728 1723 1707 1682 1647 1600 1550 1502 1450 1391 1328 1267 1187 1094 976 854 704 596 484 393 310 396 465 480 471 425 392 341 465 595 750 872 964 1010 1013 976 914 836 778 736 749 744 731 724 780 842 886 900 887 855 822 797 802 806 812 808 805 810 820 831 856 876 890 894 892 880 870 857 889 909 919 947 995 1055 1121 1178 1220 1244 1244 1230 1198 1147 1077 986 881 774 666 559 434 315 241 103 104 50 -1 -1 -1 -1 -1 -1 -1 -1
-1 -1 -1 -1 -1 -1 -1 106 228 339 463 640 848 1031 1119 1127 1047 884 711 557 694 889 1109 1265 1361 1409 1418 1416 1401 1394 1379 1388 1361 1352 1305 1260 1187 1102 1021 965 1123 1281 1440 1532 1572 1578 1563 1558 1544 1554 1547 1586 1607 1650 1681 1694 1664 1572 1403 1206 1106 1183 1273 1254 1170 1063 1145 1244 1341 1349 1260 1172 1141 1296 1440 1557 1626 1661 1676 1676 1670 1661 1642 1613 1580 1540 1491 1430 1364 1283 1190 1067 943 780 626 450 359 320 431 515 587 614 601 576 516 455 379 509 661 826 938 997 1001 960 887 818 766 783 794 787 754 733 779 850 896 910 889 851 813 808 821 837 843 845 846 848 857 868 880 903 919 928 925 916 896 873 853 857 860 894 958 1035 1109 1171 1215 1238 1241 1222 1191 1149 1088 1011 919 817 708 592 451 281 181 207 180 140 59 -1 -1 -1 -1 -1 -1 -1
-1 -1 -1 -1 -1 -1 112 288 441 576 702 831 959 1043 1059 996 858 658 465 536 736 960 1131 1246 1300 1305 1295 1268 1259 1250 1267 1251 1244 1197 1151 1072 983 902 843 970 1128 1294 1403 1457 1463 1440 1424 1409 1418 1400 1430 1446 1503 1545 1580 1594 1567 1487 1340 1165 1067 1130 1198 1166 1032 1052 1131 1265 1334 1318 1223 1088 1130 1237 1395 1504 1571 1604 1614 1618 1623 1625 1619 1604 1585 1553 1509 1452 1380 1292 1180 1061 909 767 577 426 300 390 511 623 687 720 728 706 661 559 443 393 568 753 896 974 987 945 868 792 798 825 841 823 772 743 785 854 906 917 893 852 826 832 854 874 887 891 896 901 905 911 921 929 942 951 953 948 933 911 887 860 870 909 971 1048 1115 1174 1214 1234 1233 1215 1186 1148 1099 1037 962 875 777 665 526 392 315 277 246 174 77 -1 -1 -1 -1 -1 -1 -1
-1 -1 -1 -1 -1 1 209 408 577 720 834 921 977 987 930 811 641 477 392 584 814 1002 1127 1188 1195 1178 1141 1117 1101 1145 1151 1150 1100 1047 967 881 803 744 841 996 1158 1276 1341 1354 1324 1293 1265 1272 1253 1275 1274 1338 1392 1443 1474 1482 1455 1382 1263 1114 1039 1090 1144 1102 1022 982 1112 1238 1292 1260 1152 1085 1068 1229 1359 1458 1512 1536 1545 1552 1564 1573 1577 1577 1567 1546 1511 1458 1388 1297 1193 1059 934 780 628 447 332 434 586 697 767 812 830 824 780 683 525 389 482 665 839 944 972 935 857 794 816 862 879 854 794 755 796 864 911 926 905 869 860 874 899 921 936 944 951 955 956 958 958 959 961 965 967 968 966 958 945 936 937 964 1017 1076 1136 1184 1216 1228 1220 1197 1167 1133 1090 1035 966 882 786 676 560 453 367 297 228 143 36 -1 -1 -1 -1 -1 -1 -1
